0.1158215952 -0.0734620942 -0.1251072526
0.1159182203 -0.0715694477 -0.1260372060
0.1189602394 -0.0751239301 -0.1218173648
0.1140474679 -0.0778013325 -0.1241664536
0.1151841536 -0.0755855512 -0.1244698110
0.1156406533 -0.0790015473 -0.1223072791
0.1104426533 -0.0819559223 -0.1247282801
0.1124531104 -0.0799709516 -0.1242387525
0.1043408644 -0.0834331098 -0.1286264300
0.1057627786 -0.0809403559 -0.1288578753
0.1090931242 -0.0806172211 -0.1264739701
0.1076377594 -0.0758163618 -0.1301376217
0.1113426323 -0.0758163618 -0.1272949156
0.1068756010 -0.0783552778 -0.1293754633
0.1175778741 -0.0523854687 -0.1332990450
0.1193381244 -0.0513204023 -0.1323080904
0.1223221244 -0.0523854687 -0.1296586709
0.1118321476 -0.0498680389 -0.1385581382
0.1129805230 -0.0477379060 -0.1383964160
0.1161593803 -0.0497228026 -0.1352868050
0.1215794767 -0.0477379060 -0.1317982379
0.1251753516 -0.0498680389 -0.1283195858
0.1206812439 -0.0497228026 -0.1318170733
0.1066419916 -0.0459950700 -0.1438487628
0.1074009922 -0.0431871675 -0.1442147341
0.1099961834 -0.0455109488 -0.1414385252
0.1035644531 -0.0419284526 -0.1475837317
0.1041565787 -0.0388300774 -0.1481758573
0.1053895803 -0.0409117982 -0.1465266443
0.1083073448 -0.0372808898 -0.1455141160
0.1110694110 -0.0398951439 -0.1425117528
0.1079653619 -0.0402340286 -0.1447791038
0.1142376577 -0.0372808898 -0.1409636483
0.1179727649 -0.0402340286 -0.1371001895
0.1144793409 -0.0398951439 -0.1398952339
0.1201684235 -0.0388300774 -0.1358895944
0.1243205483 -0.0419284526 -0.1316570947
0.1213272963 -0.0409117982 -0.1342972623
0.1259155086 -0.0459950700 -0.1290597428
0.1220050670 -0.0455109488 -0.1322238281
0.1219302588 -0.0431871675 -0.1330660882
0.1138230177 -0.0452688883 -0.1385838619
0.1143318756 -0.0426062221 -0.1390927198
0.1179001078 -0.0452688883 -0.1354554153
0.1213163447 -0.0273626555 -0.1373150160
0.1229988877 -0.0262681126 -0.1361977915
0.1261443452 -0.0273626555 -0.1336103918
0.1152120704 -0.0247755540 -0.1424098116
0.1161631562 -0.0225864681 -0.1420276748
0.1196008579 -0.0246262982 -0.1390659080
0.1249139070 -0.0225864681 -0.1353130433
0.1287908216 -0.0247755540 -0.1319905559
0.1242025458 -0.0246262982 -0.1355349380
0.1095347257 -0.0207953978 -0.1473982477
0.1100203386 -0.0179097846 -0.1474838939
0.1128986829 -0.0202978783 -0.1448960255
0.1059875139 -0.0166162338 -0.1507837935
0.1062736386 -0.0134321089 -0.1510699182
0.1077410237 -0.0155714428 -0.1496042136
0.1103394512 -0.0118400464 -0.1482029733
0.1134172839 -0.0145266518 -0.1454146265
0.1102930512 -0.0148749155 -0.1477566065
0.1163744518 -0.0118400464 -0.1435721930
0.1204771146 -0.0148749155 -0.1399421647
0.1168874092 -0.0145266518 -0.1427519278
0.1225681400 -0.0134321089 -0.1385668113
0.1271100158 -0.0166162338 -0.1345760624
0.1239600877 -0.0155714428 -0.1371589915
0.1291484775 -0.0207953978 -0.1323482117
0.1251195591 -0.0202978783 -0.1355186954
0.1248060900 -0.0179097846 -0.1361384822
0.1167683493 -0.0200491185 -0.1419662566
0.1170142377 -0.0173127612 -0.1422121449
0.1209174122 -0.0200491185 -0.1387825951
0.1511346691 0.0090106563 -0.1064072964
0.1498548549 0.0100636914 -0.1080560602
0.1511092943 0.0122199062 -0.1063819216
0.1481626382 0.0047985157 -0.1103573589
0.1456156973 0.0052999610 -0.1136675740
0.1479662575 0.0077068985 -0.1105603298
0.1455697055 0.0111167265 -0.1136215821
0.1480912715 0.0138245312 -0.1102859922
0.1479420722 0.0107657148 -0.1105361444
0.1435707639 0.0007869533 -0.1164148590
0.1402174696 0.0009373869 -0.1207823612
0.1429753696 0.0029933126 -0.1171506365
0.1387366084 -0.0018205623 -0.1227625468
0.1350377342 -0.0018205623 -0.1275831721
0.1375141927 -0.0007173826 -0.1243355918
0.1331676800 0.0007869533 -0.1299728677
0.1362711600 0.0029933126 -0.1258880199
0.1366919801 0.0009373869 -0.1253770197
0.1331359615 0.0047985157 -0.1299411491
0.1366384551 0.0077068985 -0.1253234947
0.1362529218 0.0052999610 -0.1258697817
0.1349520942 0.0090106563 -0.1274975321
0.1386255936 0.0122199062 -0.1226515319
0.1374289492 0.0100636914 -0.1242503483
0.1434676787 0.0138245312 -0.1163117738
0.1429111396 0.0111167265 -0.1170864065
0.1401397593 0.0107657148 -0.1207046509
0.1426661745 0.0055506837 -0.1175070273
0.1394874544 0.0055506837 -0.1216497522
0.1426443680 0.0083086328 -0.1174852208
-0.1815305492 -0.0018205623 -0.0369470946
-0.1812583591 -0.0007173826 -0.0389206218
-0.1807374237 -0.0018205623 -0.0429713444
-0.1825432909 0.0007869533 -0.0290327508
-0.1823954735 0.0029933126 -0.0299676802
-0.1818228920 0.0009373869 -0.0344917936
-0.1809579335 0.0029933126 -0.0408866330
-0.1803126255 0.0007869533 -0.0459759534
-0.1810669442 0.0009373869 -0.0402336567
-0.1834912585 0.0047985157 -0.0214908755
-0.1834225873 0.0077068985 -0.0217648791
-0.1829405549 0.0052999610 -0.0256311019
-0.1840900618 0.0090106563 -0.0165840315
-0.1840553104 0.0122199062 -0.0165747811
-0.1838060221 0.0100636914 -0.0186518321
-0.1833935203 0.0138245312 -0.0214648589
-0.1828775680 0.0111167265 -0.0256143357
-0.1833894649 0.0107657148 -0.0217560624
-0.1824021135 0.0138245312 -0.0289951712
-0.1817164659 0.0107657148 -0.0344634643
-0.1823075091 0.0111167265 -0.0299442652
-0.1813785119 0.0122199062 -0.0369066243
-0.1806201378 0.0090106563 -0.0429401245
-0.1811416162 0.0100636914 -0.0388895463
-0.1802691863 0.0047985157 -0.0459643905
-0.1809329560 0.0052999610 -0.0408799843
-0.1809936406 0.0077068985 -0.0402141442
-0.1823058180 0.0055506837 -0.0304309533
-0.1822759536 0.0083086328 -0.0304230038
-0.1816242258 0.0055506837 -0.0356080430
-0.1822559242 -0.0046286560 0.0316758760
-0.1825407185 -0.0056816911 0.0296018603
-0.1822917988 -0.0078379059 0.0316758760
-0.1828541659 -0.0004165154 0.0267736571
-0.1834058173 -0.0009179607 0.0226256257
-0.1829239076 -0.0033248982 0.0264908368
-0.1834708399 -0.0067347262 0.0226256257
-0.1829550631 -0.0094425308 0.0267736571
-0.1829581005 -0.0063837145 0.0264908368
-0.1838021335 0.0035950470 0.0192317819
-0.1845236030 0.0034446134 0.0137639223
-0.1839508986 0.0013886877 0.0182890475
-0.1848154368 0.0062025626 0.0113128129
-0.1856096855 0.0062025626 0.0052793127
-0.1850883815 0.0050993829 0.0093330706
-0.1860359579 0.0035950470 0.0022625626
-0.1853904743 0.0013886877 0.0073533284
-0.1852806213 0.0034446134 0.0080132424
-0.1860808011 -0.0004165154 0.0022625626
-0.1853562941 -0.0033248982 0.0080132424
-0.1854162592 -0.0009179607 0.0073533284
-0.1857307621 -0.0046286560 0.0052793127
-0.1849723880 -0.0078379059 0.0113128129
-0.1852088976 -0.0056816911 0.0093330706
-0.1839478739 -0.0094425308 0.0192317819
-0.1840417061 -0.0067347262 0.0182890475
-0.1846334688 -0.0063837145 0.0137639223
-0.1840415368 -0.0011686834 0.0178176803
-0.1847240943 -0.0011686834 0.0126326410
-0.1840723665 -0.0039266325 0.0178176803
-0.1387366084 -0.0018205623 -0.1227625468
-0.1375141927 -0.0007173826 -0.1243355918
-0.1350377342 -0.0018205623 -0.1275831721
-0.1435707639 0.0007869533 -0.1164148590
-0.1429753696 0.0029933126 -0.1171506365
-0.1402174696 0.0009373869 -0.1207823612
-0.1362711600 0.0029933126 -0.1258880199
-0.1331676800 0.0007869533 -0.1299728677
-0.1366919801 0.0009373869 -0.1253770197
-0.1481626382 0.0047985157 -0.1103573589
-0.1479662575 0.0077068985 -0.1105603298
-0.1456156973 0.0052999610 -0.1136675740
-0.1511346691 0.0090106563 -0.1064072964
-0.1511092943 0.0122199062 -0.1063819216
-0.1498548549 0.0100636914 -0.1080560602
-0.1480912715 0.0138245312 -0.1102859922
-0.1455697055 0.0111167265 -0.1136215821
-0.1479420722 0.0107657148 -0.1105361444
-0.1434676787 0.0138245312 -0.1163117738
-0.1401397593 0.0107657148 -0.1207046509
-0.1429111396 0.0111167265 -0.1170864065
-0.1386255936 0.0122199062 -0.1226515319
-0.1349520942 0.0090106563 -0.1274975321
-0.1374289492 0.0100636914 -0.1242503483
-0.1331359615 0.0047985157 -0.1299411491
-0.1362529218 0.0052999610 -0.1258697817
-0.1366384551 0.0077068985 -0.1253234947
-0.1426661745 0.0055506837 -0.1175070273
-0.1426443680 0.0083086328 -0.1174852208
-0.1394874544 0.0055506837 -0.1216497522
-0.1657822442 -0.0018205623 -0.0826719503
-0.1650085724 -0.0007173826 -0.0845077337
-0.1634569943 -0.0018205623 -0.0882855754
-0.1688088457 0.0007869533 -0.0752894427
-0.1684241271 0.0029933126 -0.0761541969
-0.1667001290 0.0009373869 -0.0803759467
-0.1642096118 0.0029933126 -0.0863288923
-0.1622690805 0.0007869533 -0.0910777632
-0.1644838753 0.0009373869 -0.0857264331
-0.1716765020 0.0047985157 -0.0682499118
-0.1715392990 0.0077068985 -0.0684967383
-0.1700730295 0.0052999610 -0.0721064666
-0.1735249162 0.0090106563 -0.0636652169
-0.1734937914 0.0122199062 -0.0636472172
-0.1727153987 0.0100636914 -0.0655889944
-0.1715889635 0.0138245312 -0.0681992878
-0.1700166158 0.0111167265 -0.0720738422
-0.1715096332 0.0107657148 -0.0684795824
-0.1686824012 0.0138245312 -0.0752163191
-0.1666048093 0.0107657148 -0.0803208227
-0.1683453424 0.0111167265 -0.0761086352
-0.1656460732 0.0122199062 -0.0825932018
-0.1633519481 0.0090106563 -0.0882248265
-0.1649040125 0.0100636914 -0.0844472660
-0.1622301745 0.0047985157 -0.0910552636
-0.1641872408 0.0052999610 -0.0863159550
-0.1644182214 0.0077068985 -0.0856884650
-0.1682176644 0.0055506837 -0.0765784178
-0.1681909165 0.0083086328 -0.0765629494
-0.1662194028 0.0055506837 -0.0814026269
-0.1022361697 -0.0018205623 -0.1544870115
-0.1006482147 -0.0007173826 -0.1556900055
-0.0974155444 -0.0018205623 -0.1581858858
-0.1085486157 0.0007869533 -0.1496069501
-0.1077830182 0.0029933126 -0.1501635009
-0.1041790803 0.0009373869 -0.1529575959
-0.0990456349 0.0029933126 -0.1568677105
-0.0949906071 0.0007869533 -0.1600100340
-0.0995844218 0.0009373869 -0.1564830855
-0.1145518977 0.0047985157 -0.1449444513
-0.1143096187 0.0077068985 -0.1450896292
-0.1112349054 0.0052999610 -0.1474825641
-0.1184450312 0.0090106563 -0.1418982646
-0.1184270316 0.0122199062 -0.1418671398
-0.1167820351 0.0100636914 -0.1431595398
-0.1145012737 0.0138245312 -0.1448569128
-0.1112022810 0.0111167265 -0.1474261504
-0.1142924628 0.0107657148 -0.1450599633
-0.1084754920 0.0138245312 -0.1494805056
-0.1041239563 0.0107657148 -0.1528622762
-0.1077374566 0.0111167265 -0.1500847163
-0.1021574212 0.0122199062 -0.1543508405
-0.0973547956 0.0090106563 -0.1580808396
-0.1005877470 0.0100636914 -0.1555854456
-0.0949681075 0.0047985157 -0.1599711280
-0.0990326976 0.0052999610 -0.1568453396
-0.0995464538 0.0077068985 -0.1564174316
-0.1073920634 0.0055506837 -0.1504276729
-0.1073765949 0.0083086328 -0.1504009250
-0.1032493385 0.0055506837 -0.1536063930
-0.0587681100 -0.0018205623 -0.1756835955
-0.0569229595 -0.0007173826 -0.1764346223
-0.0531544850 -0.0018205623 -0.1780088453
-0.0661284770 0.0007869533 -0.1726034696
-0.0652449884 0.0029933126 -0.1729428983
-0.0610406956 0.0009373869 -0.1747090983
-0.0550702930 0.0029933126 -0.1771574136
-0.0503401565 0.0007869533 -0.1791432347
-0.0556902093 0.0009373869 -0.1769253520
-0.0731339453 0.0047985157 -0.1696534681
-0.0728624235 0.0077068985 -0.1697309707
-0.0692731327 0.0052999610 -0.1712466474
-0.0776828746 0.0090106563 -0.1677185914
-0.0776736242 0.0122199062 -0.1676838400
-0.0757501557 0.0100636914 -0.1685064932
-0.0731079287 0.0138245312 -0.1695557298
-0.0692563664 0.0111167265 -0.1711836606
-0.0728536068 0.0107657148 -0.1696978483
-0.0660908974 0.0138245312 -0.1724622921
-0.0610123664 0.0107657148 -0.1746026722
-0.0652215734 0.0111167265 -0.1728549339
-0.0587276397 0.0122199062 -0.1755315582
-0.0531232650 0.0090106563 -0.1778915594
-0.0568918840 0.0100636914 -0.1763178794
-0.0503285936 0.0047985157 -0.1790997955
-0.0550636443 0.0052999610 -0.1771324361
-0.0556706968 0.0077068985 -0.1768520483
-0.0647990526 0.0055506837 -0.1730968659
-0.0647911031 0.0083086328 -0.1730670015
-0.0599748436 0.0055506837 -0.1750951275
-0.0112954684 -0.0018205623 -0.1849072292
-0.0093187615 -0.0007173826 -0.1851551416
-0.0052712186 -0.0018205623 -0.1857003546
-0.0192022963 0.0007869533 -0.1838371039
-0.0182610073 0.0029933126 -0.1839363660
-0.0137428199 0.0009373869 -0.1845541922
-0.0073420545 0.0029933126 -0.1853739059
-0.0022590937 0.0007869533 -0.1860677693
-0.0080009568 0.0009373869 -0.1853101400
-0.0267326086 0.0047985157 -0.1828008539
-0.0264502219 0.0077068985 -0.1828055203
-0.0225909369 0.0052999610 -0.1833405222
-0.0316273116 0.0090106563 -0.1821093541
-0.0316273116 0.0122199062 -0.1820734795
-0.0295564757 0.0100636914 -0.1823702196
-0.0267326086 0.0138245312 -0.1826999567
-0.0225909369 0.0111167265 -0.1832754996
-0.0264502219 0.0107657148 -0.1827713274
-0.0192022963 0.0138245312 -0.1836913635
-0.0137428199 0.0107657148 -0.1844443264
-0.0182610073 0.0111167265 -0.1838455586
-0.0112954684 0.0122199062 -0.1847502780
-0.0052712186 0.0090106563 -0.1855792780
-0.0093187615 0.0100636914 -0.1850346255
-0.0022590937 0.0047985157 -0.1860229261
-0.0073420545 0.0052999610 -0.1853481211
-0.0080009568 0.0077068985 -0.1852344671
-0.0177903628 0.0055506837 -0.1839697414
-0.0177903628 0.0083086328 -0.1839389117
-0.0126132731 0.0055506837 -0.1846513336
0.0826719503 -0.0018205623 -0.1657822442
0.0845077337 -0.0007173826 -0.1650085724
0.0882855754 -0.0018205623 -0.1634569943
0.0752894427 0.0007869533 -0.1688088457
0.0761541969 0.0029933126 -0.1684241271
0.0803759467 0.0009373869 -0.1667001290
0.0863288923 0.0029933126 -0.1642096118
0.0910777632 0.0007869533 -0.1622690805
0.0857264331 0.0009373869 -0.1644838753
0.0682499118 0.0047985157 -0.1716765020
0.0684967383 0.0077068985 -0.1715392990
0.0721064666 0.0052999610 -0.1700730295
0.0636652169 0.0090106563 -0.1735249162
0.0636472172 0.0122199062 -0.1734937914
0.0655889944 0.0100636914 -0.1727153987
0.0681992878 0.0138245312 -0.1715889635
0.0720738422 0.0111167265 -0.1700166158
0.0684795824 0.0107657148 -0.1715096332
0.0752163191 0.0138245312 -0.1686824012
0.0803208227 0.0107657148 -0.1666048093
0.0761086352 0.0111167265 -0.1683453424
0.0825932018 0.0122199062 -0.1656460732
0.0882248265 0.0090106563 -0.1633519481
0.0844472660 0.0100636914 -0.1649040125
0.0910552636 0.0047985157 -0.1622301745
0.0863159550 0.0052999610 -0.1641872408
0.0856884650 0.0077068985 -0.1644182214
0.0765784178 0.0055506837 -0.1682176644
0.0765629494 0.0083086328 -0.1681909165
0.0814026269 0.0055506837 -0.1662194028
0.0369470946 -0.0018205623 -0.1815305492
0.0389206218 -0.0007173826 -0.1812583591
0.0429713444 -0.0018205623 -0.1807374237
0.0290327508 0.0007869533 -0.1825432909
0.0299676802 0.0029933126 -0.1823954735
0.0344917936 0.0009373869 -0.1818228920
0.0408866330 0.0029933126 -0.1809579335
0.0459759534 0.0007869533 -0.1803126255
0.0402336567 0.0009373869 -0.1810669442
0.0214908755 0.0047985157 -0.1834912585
0.0217648791 0.0077068985 -0.1834225873
0.0256311019 0.0052999610 -0.1829405549
0.0165840315 0.0090106563 -0.1840900618
0.0165747811 0.0122199062 -0.1840553104
0.0186518321 0.0100636914 -0.1838060221
0.0214648589 0.0138245312 -0.1833935203
0.0256143357 0.0111167265 -0.1828775680
0.0217560624 0.0107657148 -0.1833894649
0.0289951712 0.0138245312 -0.1824021135
0.0344634643 0.0107657148 -0.1817164659
0.0299442652 0.0111167265 -0.1823075091
0.0369066243 0.0122199062 -0.1813785119
0.0429401245 0.0090106563 -0.1806201378
0.0388895463 0.0100636914 -0.1811416162
0.0459643905 0.0047985157 -0.1802691863
0.0408799843 0.0052999610 -0.1809329560
0.0402141442 0.0077068985 -0.1809936406
0.0304309533 0.0055506837 -0.1823058180
0.0304230038 0.0083086328 -0.1822759536
0.0356080430 0.0055506837 -0.1816242258
-0.1795761220 -0.0273626555 -0.0364052510
-0.1794498728 -0.0262681126 -0.0384210010
-0.1787818733 -0.0273626555 -0.0424387511
-0.1809361601 -0.0247755540 -0.0285713914
-0.1810807861 -0.0225864681 -0.0295861414
-0.1802346946 -0.0246262982 -0.0340441611
-0.1796412104 -0.0225864681 -0.0405218605
-0.1787023358 -0.0247755540 -0.0455406106
-0.1794776764 -0.0246262982 -0.0397948409
-0.1824175661 -0.0207953978 -0.0211604537
-0.1827345671 -0.0179097846 -0.0215382037
-0.1819325945 -0.0202978783 -0.0253248522
-0.1835759180 -0.0166162338 -0.0163957192
-0.1839667941 -0.0134321089 -0.0165004692
-0.1834311512 -0.0155714428 -0.0185041060
-0.1835169051 -0.0118400464 -0.0214550632
-0.1826410574 -0.0145266518 -0.0255147117
-0.1831071209 -0.0148749155 -0.0216380436
-0.1825240942 -0.0118400464 -0.0289969384
-0.1814317526 -0.0148749155 -0.0343649581
-0.1820701912 -0.0145266518 -0.0298512900
-0.1812862048 -0.0134321089 -0.0368635324
-0.1801010801 -0.0166162338 -0.0427922825
-0.1807629721 -0.0155714428 -0.0387728957
-0.1791909309 -0.0207953978 -0.0456715482
-0.1799221526 -0.0202978783 -0.0405971496
-0.1803021806 -0.0179097846 -0.0400157981
-0.1813302148 -0.0200491185 -0.0301409813
-0.1816661239 -0.0173127612 -0.0302310009
-0.1806476574 -0.0200491185 -0.0353260205
-0.1747733927 -0.0194023432 -0.0583388449
-0.1753899021 -0.0204968861 -0.0564900285
-0.1770617678 -0.0194023432 -0.0528140950
-0.1714523137 -0.0219894447 -0.0655049697
-0.1715411450 -0.0241785306 -0.0645697119
-0.1735078312 -0.0221387005 -0.0604932550
-0.1756888247 -0.0241785306 -0.0545561028
-0.1778883685 -0.0219894447 -0.0499666107
-0.1756889387 -0.0221387005 -0.0552274778
-0.1681032497 -0.0259696009 -0.0722799695
-0.1678562859 -0.0288552141 -0.0719260671
-0.1696154332 -0.0264671204 -0.0684653368
-0.1657309202 -0.0301487649 -0.0766313443
-0.1653400441 -0.0333328898 -0.0765265943
-0.1663892929 -0.0311935559 -0.0746978405
-0.1670039108 -0.0349249523 -0.0719853600
-0.1689069703 -0.0322383468 -0.0682754773
-0.1674837321 -0.0318900832 -0.0718262272
-0.1698643796 -0.0349249523 -0.0650794227
-0.1723107732 -0.0318900832 -0.0601724580
-0.1705517399 -0.0322383468 -0.0643045633
-0.1730633099 -0.0333328898 -0.0578805635
-0.1757425610 -0.0301487649 -0.0524605637
-0.1740768028 -0.0311935559 -0.0561381339
-0.1773997734 -0.0259696009 -0.0498356732
-0.1754078825 -0.0264671204 -0.0544808137
-0.1748644345 -0.0288552141 -0.0550065206
-0.1714084449 -0.0267158801 -0.0640546181
-0.1710725357 -0.0294522375 -0.0639645986
-0.1733750172 -0.0267158801 -0.0593067862
-0.1501345756 -0.0446395308 -0.0990469373
-0.1510361718 -0.0457045973 -0.0974032578
-0.1536419513 -0.0446395308 -0.0944761877
-0.1449419816 -0.0471569606 -0.1047059135
-0.1449914863 -0.0492870936 -0.1037039293
-0.1480865507 -0.0473021970 -0.1005440486
-0.1513486048 -0.0492870936 -0.0954194456
-0.1548064759 -0.0471569606 -0.0918506802
-0.1514295182 -0.0473021970 -0.0961875529
-0.1396513570 -0.0510299296 -0.1098960694
-0.1391586215 -0.0538378321 -0.1093024367
-0.1419493771 -0.0515140507 -0.1066882689
-0.1358498889 -0.0550965470 -0.1130603583
-0.1351247649 -0.0581949222 -0.1126417335
-0.1368176180 -0.0561132014 -0.1113518019
-0.1376119456 -0.0597441097 -0.1087186870
-0.1406350898 -0.0571298557 -0.1059295114
-0.1384674877 -0.0567909709 -0.1089034349
-0.1419961653 -0.0597441097 -0.1030052500
-0.1458658584 -0.0567909709 -0.0992620100
-0.1431560161 -0.0571298557 -0.1026442851
-0.1469621579 -0.0581949222 -0.0972154536
-0.1511946577 -0.0550965470 -0.0930633289
-0.1486002083 -0.0561132014 -0.0959969400
-0.1539000708 -0.0510299296 -0.0913273992
-0.1508274219 -0.0515140507 -0.0951185590
-0.1498999597 -0.0538378321 -0.0953045161
-0.1446876668 -0.0517561113 -0.1030132478
-0.1440645134 -0.0544187774 -0.1026534921
-0.1477018179 -0.0517561113 -0.0990852598
-0.1143227323 -0.0690305317 -0.1286083591
-0.1154324568 -0.0700460981 -0.1272180989
-0.1186338571 -0.0690305317 -0.1253004830
-0.1079437949 -0.0714309614 -0.1322293605
-0.1080076815 -0.0734620942 -0.1311027782
-0.1118091795 -0.0715694477 -0.1291900255
-0.1158215952 -0.0734620942 -0.1251072526
-0.1200688334 -0.0714309614 -0.1229259588
-0.1159182203 -0.0715694477 -0.1260372060
-0.1014462949 -0.0751239301 -0.1352556117
-0.1008446482 -0.0778013325 -0.1342968244
-0.1042716190 -0.0755855512 -0.1328428726
-0.0967794823 -0.0790015473 -0.1367792374
-0.0958926071 -0.0819559223 -0.1358923622
-0.0979704255 -0.0799709516 -0.1353511491
-0.0989519584 -0.0834331098 -0.1327612752
-0.1026641577 -0.0809403559 -0.1312354113
-0.0999993453 -0.0806172211 -0.1334515215
-0.1043408644 -0.0834331098 -0.1286264300
-0.1090931242 -0.0806172211 -0.1264739701
-0.1057627786 -0.0809403559 -0.1288578753
-0.1104426533 -0.0819559223 -0.1247282801
-0.1156406533 -0.0790015473 -0.1223072791
-0.1124531104 -0.0799709516 -0.1242387525
-0.1189602394 -0.0751239301 -0.1218173648
-0.1151841536 -0.0755855512 -0.1244698110
-0.1140474679 -0.0778013325 -0.1241664536
-0.1076377594 -0.0758163618 -0.1301376217
-0.1068756010 -0.0783552778 -0.1293754633
-0.1113426323 -0.0758163618 -0.1272949156
-0.0723277950 -0.0921155326 -0.1438792557
-0.0735615116 -0.0930623491 -0.1427604897
-0.0769506698 -0.0921155326 -0.1419645050
-0.0655909748 -0.0943534626 -0.1452330297
-0.0657469708 -0.0962470956 -0.1439528730
-0.0697418418 -0.0944825739 -0.1434309020
-0.0741259313 -0.0962470956 -0.1404823872
-0.0785928101 -0.0943534626 -0.1398477932
-0.0741480193 -0.0944825739 -0.1416059052
-0.0587826936 -0.0977964317 -0.1458428737
-0.0582528673 -0.1002925844 -0.1444600138
-0.0618322091 -0.0982268029 -0.1443035332
-0.0539454358 -0.1014115494 -0.1455258345
-0.0531216856 -0.1041659247 -0.1440989589
-0.0552642560 -0.1023153288 -0.1443994454
-0.0564658963 -0.1055431124 -0.1418297861
-0.0603391619 -0.1032191082 -0.1417173212
-0.0574677304 -0.1029178484 -0.1431000230
-0.0622444898 -0.1055431124 -0.1394363476
-0.0672191069 -0.1029178484 -0.1390610955
-0.0636618532 -0.1032191082 -0.1403410941
-0.0687238880 -0.1041659247 -0.1376366750
-0.0741705130 -0.1014115494 -0.1371487998
-0.0707942259 -0.1023153288 -0.1379670795
-0.0775631224 -0.0977964317 -0.1380641987
-0.0735338609 -0.0982268029 -0.1394568203
-0.0724104213 -0.1002925844 -0.1385960895
-0.0654517069 -0.0984419885 -0.1426662416
-0.0647437967 -0.1008090298 -0.1414400204
-0.0694244900 -0.0984419885 -0.1410207526
-0.0299309053 -0.1134578784 -0.1438740827
-0.0312091905 -0.1143181128 -0.1430149907
-0.0343716553 -0.1134578784 -0.1432894580
-0.0236797180 -0.1154911597 -0.1430642379
-0.0240159134 -0.1172116285 -0.1416383663
-0.0276797609 -0.1156084644 -0.1424434315
-0.0320647728 -0.1172116285 -0.1405787340
-0.0361693273 -0.1154911597 -0.1414199809
-0.0319123508 -0.1156084644 -0.1418862111
-0.0174784682 -0.1186192848 -0.1413686115
-0.0172151519 -0.1208871755 -0.1395820619
-0.0204501948 -0.1190103004 -0.1406633811
-0.0131875309 -0.1219038161 -0.1392958914
-0.0126672811 -0.1244063162 -0.1373547656
-0.0145433318 -0.1227249490 -0.1384579947
-0.0160152655 -0.1256575662 -0.1359091951
-0.0195072420 -0.1235460818 -0.1371450905
-0.0167192888 -0.1232723709 -0.1377319263
-0.0215662030 -0.1256575662 -0.1351784142
-0.0260864958 -0.1232723709 -0.1364987336
-0.0226990310 -0.1235460818 -0.1367248915
-0.0276548123 -0.1244063162 -0.1353816572
-0.0326158121 -0.1219038161 -0.1367381583
-0.0294614763 -0.1227249490 -0.1364940211
-0.0355190150 -0.1186192848 -0.1389935736
-0.0316908432 -0.1190103004 -0.1391835498
-0.0308149488 -0.1208871755 -0.1377916487
-0.0239482729 -0.1192058082 -0.1400458578
-0.0235011832 -0.1213563942 -0.1383777028
-0.0277645424 -0.1192058082 -0.1395434460
0.0405685939 -0.1326552853 -0.1236104857
0.0391878400 -0.1334126955 -0.1233214133
0.0369933439 -0.1326552853 -0.1250913603
0.0447703597 -0.1344455276 -0.1198350565
0.0437964769 -0.1359603480 -0.1185164744
0.0415019768 -0.1345488108 -0.1210714194
0.0373163362 -0.1359603480 -0.1212005596
0.0347149689 -0.1344455276 -0.1240000163
0.0380943166 -0.1345488108 -0.1224828780
0.0484844223 -0.1371997464 -0.1151658382
0.0477694575 -0.1391965551 -0.1131921135
0.0459320629 -0.1375440238 -0.1158316738
0.0505965630 -0.1400916763 -0.1110035962
0.0499925631 -0.1422950514 -0.1087490962
0.0491693833 -0.1408146587 -0.1107728890
0.0467856725 -0.1433967389 -0.1088250568
0.0448373130 -0.1415376412 -0.1117453925
0.0471937701 -0.1412966470 -0.1110432931
0.0423166099 -0.1433967389 -0.1106761500
0.0396522270 -0.1412966470 -0.1141670130
0.0422676020 -0.1415376412 -0.1128097711
0.0379260942 -0.1422950514 -0.1137470480
0.0349548441 -0.1400916763 -0.1174824226
0.0371587777 -0.1408146587 -0.1157477022
0.0339599690 -0.1371997464 -0.1211818912
0.0368822112 -0.1375440238 -0.1195801377
0.0368202543 -0.1391965551 -0.1177272920
0.0430358480 -0.1377161625 -0.1168356129
0.0425167856 -0.1396096880 -0.1148981520
0.0399633675 -0.1377161625 -0.1181082396
0.0071939063 -0.1326552853 -0.1298983898
0.0059349727 -0.1334126955 -0.1292618216
0.0033571563 -0.1326552853 -0.1304035150
0.0122296408 -0.1344455276 -0.1273390384
0.0116301486 -0.1359603480 -0.1258133394
0.0087525861 -0.1345488108 -0.1276874018
0.0046760391 -0.1359603480 -0.1267288788
0.0014387813 -0.1344455276 -0.1287597028
0.0050956837 -0.1345488108 -0.1281688492
0.0170255784 -0.1371997464 -0.1237901324
0.0168457307 -0.1391965551 -0.1216986230
0.0143878127 -0.1375440238 -0.1237727185
0.0201429378 -0.1400916763 -0.1203163437
0.0201429378 -0.1422950514 -0.1179823441
0.0188240549 -0.1408146587 -0.1197241369
0.0170255784 -0.1433967389 -0.1172257585
0.0143878127 -0.1415376412 -0.1195423442
0.0168457307 -0.1412966470 -0.1194740296
0.0122296408 -0.1433967389 -0.1178571649
0.0087525861 -0.1412966470 -0.1205395280
0.0116301486 -0.1415376412 -0.1199054029
0.0071939063 -0.1422950514 -0.1196871415
0.0033571563 -0.1400916763 -0.1225262663
0.0059349727 -0.1408146587 -0.1214210417
0.0014387813 -0.1371997464 -0.1258422033
0.0046760391 -0.1375440238 -0.1250513165
0.0050956837 -0.1391965551 -0.1232455688
0.0113304025 -0.1377161625 -0.1239928964
0.0113304025 -0.1396096880 -0.1219871155
0.0080331954 -0.1377161625 -0.1244269883
0.0487903273 -0.1219038161 -0.1311364851
0.0498831262 -0.1227249490 -0.1299760691
0.0477854526 -0.1244063162 -0.1293958600
0.0534715534 -0.1186192848 -0.1320282274
0.0561595885 -0.1190103004 -0.1305777078
0.0527548661 -0.1208871755 -0.1303704304
0.0543382531 -0.1235460818 -0.1274228248
0.0506453433 -0.1256575662 -0.1271327193
0.0517970949 -0.1232723709 -0.1287113971
0.0599004591 -0.1154911597 -0.1320611963
0.0636036446 -0.1156084644 -0.1304260653
0.0598562093 -0.1172116285 -0.1305966649
0.0661483728 -0.1134578784 -0.1312255010
0.0702866227 -0.1134578784 -0.1295112509
0.0671608104 -0.1143181128 -0.1300646728
0.0715392870 -0.1154911597 -0.1272398679
0.0673567873 -0.1172116285 -0.1274895867
0.0675479140 -0.1156084644 -0.1287921707
0.0702831936 -0.1186192848 -0.1250640865
0.0654282565 -0.1208871755 -0.1251205396
0.0666345336 -0.1190103004 -0.1262385123
0.0668951706 -0.1219038161 -0.1236366411
0.0617520460 -0.1244063162 -0.1236102660
0.0637850594 -0.1227249490 -0.1242172602
0.0558181556 -0.1256575662 -0.1249899067
0.0573126202 -0.1235460818 -0.1261907076
0.0605262158 -0.1232723709 -0.1250954009
0.0593787506 -0.1192058082 -0.1290756785
0.0629350591 -0.1192058082 -0.1276024948
0.0585151864 -0.1213563942 -0.1275798288
0.0956280462 -0.1112681908 -0.1135421719
0.0945931690 -0.1104470579 -0.1151604200
0.0966329209 -0.1087656907 -0.1152827970
0.0910837260 -0.1145527221 -0.1137325781
0.0885115343 -0.1141617065 -0.1160987618
0.0918083116 -0.1122848314 -0.1154528068
0.0903328697 -0.1096259251 -0.1192536449
0.0939099361 -0.1075144407 -0.1186280863
0.0927660828 -0.1098996361 -0.1171118401
0.0848654446 -0.1176808472 -0.1153644532
0.0813149619 -0.1175635425 -0.1182065959
0.0849360225 -0.1159603784 -0.1170370900
0.0788386866 -0.1197141286 -0.1179482345
0.0748689362 -0.1197141286 -0.1209943597
0.0778815379 -0.1188538941 -0.1195460843
0.0737005217 -0.1176808472 -0.1239316802
0.0777408500 -0.1159603784 -0.1225581919
0.0775312935 -0.1175635425 -0.1211099340
0.0749566151 -0.1145527221 -0.1261074616
0.0796509511 -0.1122848314 -0.1247815651
0.0784631037 -0.1141617065 -0.1238092662
0.0782603883 -0.1112681908 -0.1268689695
0.0832350134 -0.1087656907 -0.1255634695
0.0812572889 -0.1104470579 -0.1253934968
0.0889477481 -0.1075144407 -0.1224357428
0.0874796116 -0.1096259251 -0.1214430474
0.0843923907 -0.1098996361 -0.1235372604
0.0854266453 -0.1139661987 -0.1186621292
0.0820151411 -0.1139661987 -0.1212798930
0.0862902095 -0.1118156127 -0.1201579789
0.0884389671 -0.0921155326 -0.1345776133
0.0868532287 -0.0930623491 -0.1350866347
0.0844692168 -0.0921155326 -0.1376237385
0.0929799675 -0.0943534626 -0.1294202376
0.0917933657 -0.0962470956 -0.1289152177
0.0893437679 -0.0944825739 -0.1321139038
0.0845981932 -0.0962470956 -0.1344363196
0.0818150446 -0.0943534626 -0.1379874647
0.0855600996 -0.0944825739 -0.1350172418
0.0969124677 -0.0977964317 -0.1238289867
0.0959798621 -0.1002925844 -0.1226786678
0.0940545534 -0.0982268029 -0.1257002484
0.0990567178 -0.1014115494 -0.1194812357
0.0982329677 -0.1041659247 -0.1180543602
0.0974218231 -0.1023153288 -0.1200601477
0.0945956704 -0.1055431124 -0.1198158991
0.0925615062 -0.1032191082 -0.1231140364
0.0951947252 -0.1029178484 -0.1213186770
0.0896334825 -0.1055431124 -0.1236235555
0.0868210331 -0.1029178484 -0.1277440973
0.0897082482 -0.1032191082 -0.1253034389
0.0848350602 -0.1041659247 -0.1283350326
0.0816890600 -0.1014115494 -0.1328080334
0.0840859430 -0.1023153288 -0.1302932245
0.0807853569 -0.0977964317 -0.1362038702
0.0840061228 -0.0982268029 -0.1334107528
0.0838225016 -0.1002925844 -0.1320074261
0.0908268031 -0.0984419885 -0.1280161547
0.0901188928 -0.1008090298 -0.1267899335
0.0874152989 -0.0984419885 -0.1306339186
0.1110993422 -0.0664454536 -0.1324533287
0.1097339636 -0.0654760493 -0.1340154558
0.1117265926 -0.0634910786 -0.1335397034
0.1065623420 -0.0703230707 -0.1338772046
0.1035179596 -0.0698614497 -0.1364582715
0.1069165338 -0.0676456684 -0.1350261400
0.1046548509 -0.0645066450 -0.1384273257
0.1083264838 -0.0620138911 -0.1369326336
0.1075143819 -0.0648297797 -0.1360615909
0.1000648420 -0.0740160395 -0.1369034558
0.0959520026 -0.0738775532 -0.1401329389
0.0997818971 -0.0719849067 -0.1381983659
0.0935560922 -0.0764164692 -0.1406242070
0.0889853426 -0.0764164692 -0.1441315827
0.0922719324 -0.0754009028 -0.1421485060
0.0872096088 -0.0740160395 -0.1467679500
0.0914974134 -0.0719849067 -0.1445554844
0.0915955069 -0.0738775532 -0.1434759064
0.0879936718 -0.0703230707 -0.1481259185
0.0929186132 -0.0676456684 -0.1457674781
0.0919482497 -0.0698614497 -0.1453363163
0.0911023128 -0.0664454536 -0.1477980975
0.0963003128 -0.0634910786 -0.1453770965
0.0943791017 -0.0654760493 -0.1457980461
0.1026130468 -0.0620138911 -0.1413168532
0.1013696247 -0.0645066450 -0.1409482520
0.0978729570 -0.0648297797 -0.1434599615
0.0999246474 -0.0696306391 -0.1393380845
0.0959966595 -0.0696306391 -0.1423522355
0.1004636907 -0.0670917231 -0.1402716878
0.0990469373 -0.0446395308 -0.1501345756
0.0974032578 -0.0457045973 -0.1510361718
0.0944761877 -0.0446395308 -0.1536419513
0.1047059135 -0.0471569606 -0.1449419816
0.1037039293 -0.0492870936 -0.1449914863
0.1005440486 -0.0473021970 -0.1480865507
0.0954194456 -0.0492870936 -0.1513486048
0.0918506802 -0.0471569606 -0.1548064759
0.0961875529 -0.0473021970 -0.1514295182
0.1098960694 -0.0510299296 -0.1396513570
0.1093024367 -0.0538378321 -0.1391586215
0.1066882689 -0.0515140507 -0.1419493771
0.1130603583 -0.0550965470 -0.1358498889
0.1126417335 -0.0581949222 -0.1351247649
0.1113518019 -0.0561132014 -0.1368176180
0.1087186870 -0.0597441097 -0.1376119456
0.1059295114 -0.0571298557 -0.1406350898
0.1089034349 -0.0567909709 -0.1384674877
0.1030052500 -0.0597441097 -0.1419961653
0.0992620100 -0.0567909709 -0.1458658584
0.1026442851 -0.0571298557 -0.1431560161
0.0972154536 -0.0581949222 -0.1469621579
0.0930633289 -0.0550965470 -0.1511946577
0.0959969400 -0.0561132014 -0.1486002083
0.0913273992 -0.0510299296 -0.1539000708
0.0951185590 -0.0515140507 -0.1508274219
0.0953045161 -0.0538378321 -0.1498999597
0.1030132478 -0.0517561113 -0.1446876668
0.1026534921 -0.0544187774 -0.1440645134
0.0990852598 -0.0517561113 -0.1477018179
0.1015859358 -0.0194023432 -0.1537187619
0.0999596624 -0.0204968861 -0.1547928183
0.0968416855 -0.0194023432 -0.1573591360
0.1076483350 -0.0219894447 -0.1486560913
0.1067679134 -0.0241785306 -0.1489840171
0.1033393719 -0.0221387005 -0.1519387566
0.0981689597 -0.0241785306 -0.1555821953
0.0943051310 -0.0219894447 -0.1588946437
0.0988175083 -0.0221387005 -0.1554084882
0.1133256798 -0.0259696009 -0.1436676552
0.1129198911 -0.0288552141 -0.1435207706
0.1100323867 -0.0264671204 -0.1461156664
0.1169147666 -0.0301487649 -0.1402499843
0.1167123921 -0.0333328898 -0.1398996096
0.1152175264 -0.0311935559 -0.1413863963
0.1127565014 -0.0349249523 -0.1426822263
0.1096655828 -0.0322383468 -0.1454806122
0.1127270029 -0.0318900832 -0.1431868197
0.1068261885 -0.0349249523 -0.1472326940
0.1027195999 -0.0318900832 -0.1508657340
0.1062556529 -0.0322383468 -0.1480971311
0.1007005472 -0.0333328898 -0.1521858724
0.0961586714 -0.0301487649 -0.1561766213
0.0992798105 -0.0311935559 -0.1536157782
0.0940521628 -0.0259696009 -0.1584566752
0.0980235030 -0.0264671204 -0.1553303635
0.0983906245 -0.0288552141 -0.1546694165
0.1062360017 -0.0267158801 -0.1489892165
0.1060620861 -0.0294522375 -0.1486881132
0.1021589116 -0.0267158801 -0.1521176631
0.1064764198 -0.0046286560 -0.1512726995
0.1081443711 -0.0056816911 -0.1500075610
0.1065017947 -0.0078379059 -0.1512980743
0.1103658658 -0.0004165154 -0.1482293878
0.1136890809 -0.0009179607 -0.1456864235
0.1106151742 -0.0033248982 -0.1480787295
0.1137350727 -0.0067347262 -0.1457324153
0.1104372324 -0.0094425308 -0.1483007545
0.1106393596 -0.0063837145 -0.1481029149
0.1163691478 0.0035950470 -0.1435668890
0.1207457126 0.0034446134 -0.1402107627
0.1171409680 0.0013886877 -0.1430054866
0.1226852813 0.0062025626 -0.1386839526
0.1275132818 0.0062025626 -0.1349793284
0.1242781916 0.0050993829 -0.1374770954
0.1299478990 0.0035950470 -0.1331476333
0.1258917188 0.0013886877 -0.1362908552
0.1253474005 0.0034446134 -0.1366797927
0.1299796175 -0.0004165154 -0.1331793518
0.1254009255 -0.0033248982 -0.1367333177
0.1259099570 -0.0009179607 -0.1363090933
0.1275989218 -0.0046286560 -0.1350649684
0.1227962961 -0.0078379059 -0.1387949674
0.1243634351 -0.0056816911 -0.1375623389
0.1164722330 -0.0094425308 -0.1436699742
0.1172051980 -0.0067347262 -0.1430697166
0.1208234230 -0.0063837145 -0.1402884731
0.1175383761 -0.0011686834 -0.1427362834
0.1216874390 -0.0011686834 -0.1395526220
0.1175601826 -0.0039266325 -0.1427580899
0.1184450312 0.0090106563 -0.1418982646
0.1167820351 0.0100636914 -0.1431595398
0.1184270316 0.0122199062 -0.1418671398
0.1145518977 0.0047985157 -0.1449444513
0.1112349054 0.0052999610 -0.1474825641
0.1143096187 0.0077068985 -0.1450896292
0.1112022810 0.0111167265 -0.1474261504
0.1145012737 0.0138245312 -0.1448569128
0.1142924628 0.0107657148 -0.1450599633
0.1085486157 0.0007869533 -0.1496069501
0.1041790803 0.0009373869 -0.1529575959
0.1077830182 0.0029933126 -0.1501635009
0.1022361697 -0.0018205623 -0.1544870115
0.0974155444 -0.0018205623 -0.1581858858
0.1006482147 -0.0007173826 -0.1556900055
0.0949906071 0.0007869533 -0.1600100340
0.0990456349 0.0029933126 -0.1568677105
0.0995844218 0.0009373869 -0.1564830855
0.0949681075 0.0047985157 -0.1599711280
0.0995464538 0.0077068985 -0.1564174316
0.0990326976 0.0052999610 -0.1568453396
0.0973547956 0.0090106563 -0.1580808396
0.1021574212 0.0122199062 -0.1543508405
0.1005877470 0.0100636914 -0.1555854456
0.1084754920 0.0138245312 -0.1494805056
0.1077374566 0.0111167265 -0.1500847163
0.1041239563 0.0107657148 -0.1528622762
0.1073920634 0.0055506837 -0.1504276729
0.1032493385 0.0055506837 -0.1536063930
0.1073765949 0.0083086328 -0.1504009250
-0.1848154368 0.0062025626 -0.0113128129
-0.1850883815 0.0050993829 -0.0093330706
-0.1856096855 0.0062025626 -0.0052793127
-0.1838021335 0.0035950470 -0.0192317819
-0.1839508986 0.0013886877 -0.0182890475
-0.1845236030 0.0034446134 -0.0137639223
-0.1853904743 0.0013886877 -0.0073533284
-0.1860359579 0.0035950470 -0.0022625626
-0.1852806213 0.0034446134 -0.0080132424
-0.1828541659 -0.0004165154 -0.0267736571
-0.1829239076 -0.0033248982 -0.0264908368
-0.1834058173 -0.0009179607 -0.0226256257
-0.1822559242 -0.0046286560 -0.0316758760
-0.1822917988 -0.0078379059 -0.0316758760
-0.1825407185 -0.0056816911 -0.0296018603
-0.1829550631 -0.0094425308 -0.0267736571
-0.1834708399 -0.0067347262 -0.0226256257
-0.1829581005 -0.0063837145 -0.0264908368
-0.1839478739 -0.0094425308 -0.0192317819
-0.1846334688 -0.0063837145 -0.0137639223
-0.1840417061 -0.0067347262 -0.0182890475
-0.1849723880 -0.0078379059 -0.0113128129
-0.1857307621 -0.0046286560 -0.0052793127
-0.1852088976 -0.0056816911 -0.0093330706
-0.1860808011 -0.0004165154 -0.0022625626
-0.1854162592 -0.0009179607 -0.0073533284
-0.1853562941 -0.0033248982 -0.0080132424
-0.1840415368 -0.0011686834 -0.0178176803
-0.1840723665 -0.0039266325 -0.0178176803
-0.1847240943 -0.0011686834 -0.0126326410
-0.1755899172 0.0062025626 -0.0587613891
-0.1763660256 0.0050993829 -0.0569197273
-0.1779187936 0.0062025626 -0.0531390147
-0.1725615024 0.0035950470 -0.0661482713
-0.1729492809 0.0013886877 -0.0652761349
-0.1746736756 0.0034446134 -0.0610534282
-0.1771703694 0.0013886877 -0.0550855814
-0.1791114673 0.0035950470 -0.0503353434
-0.1768933860 0.0034446134 -0.0556946026
-0.1696938461 -0.0004165154 -0.0731878022
-0.1698345057 -0.0033248982 -0.0729326366
-0.1713003786 -0.0009179607 -0.0693238652
-0.1678472452 -0.0046286560 -0.0777681225
-0.1678819966 -0.0078379059 -0.0777773728
-0.1686591993 -0.0056816911 -0.0758384666
-0.1697915844 -0.0094425308 -0.0732138189
-0.1713633654 -0.0067347262 -0.0693406315
-0.1698676281 -0.0063837145 -0.0729414533
-0.1727026799 -0.0094425308 -0.0661858509
-0.1747801017 -0.0063837145 -0.0610817574
-0.1730372453 -0.0067347262 -0.0652995499
-0.1757419545 -0.0078379059 -0.0588018594
-0.1780360795 -0.0046286560 -0.0531702347
-0.1764827685 -0.0056816911 -0.0569508027
-0.1791549065 -0.0004165154 -0.0503469064
-0.1771953470 -0.0009179607 -0.0550922301
-0.1769666896 -0.0033248982 -0.0557141151
-0.1731589169 -0.0011686834 -0.0648442583
-0.1731887814 -0.0039266325 -0.0648522079
-0.1751602951 -0.0011686834 -0.0600125304
-0.1543984183 0.0062025626 -0.1022049990
-0.1556246972 0.0050993829 -0.1006269987
-0.1581030425 0.0062025626 -0.0973769985
-0.1495613878 0.0035950470 -0.1085563743
-0.1501616337 0.0013886877 -0.1078143740
-0.1529201625 0.0034446134 -0.1041818426
-0.1568762651 0.0013886877 -0.0990636232
-0.1599806435 0.0035950470 -0.0949776230
-0.1564511325 0.0034446134 -0.0995801547
-0.1449695135 -0.0004165154 -0.1146138744
-0.1451713746 -0.0033248982 -0.1144038741
-0.1475213059 -0.0009179607 -0.1112974366
-0.1420003576 -0.0046286560 -0.1185602493
-0.1420314824 -0.0078379059 -0.1185782490
-0.1432840350 -0.0056816911 -0.1169065303
-0.1450570520 -0.0094425308 -0.1146644985
-0.1475777196 -0.0067347262 -0.1113300610
-0.1452010405 -0.0063837145 -0.1144210300
-0.1496878323 -0.0094425308 -0.1086294979
-0.1530154822 -0.0063837145 -0.1042369666
-0.1502404183 -0.0067347262 -0.1078599356
-0.1545345893 -0.0078379059 -0.1022837475
-0.1582080887 -0.0046286560 -0.0974377474
-0.1557292571 -0.0056816911 -0.1006874663
-0.1600195495 -0.0004165154 -0.0950001226
-0.1568986361 -0.0009179607 -0.0990765604
-0.1565167864 -0.0033248982 -0.0996181227
-0.1504758600 -0.0011686834 -0.1074515299
-0.1505026079 -0.0039266325 -0.1074669984
-0.1536595215 -0.0011686834 -0.1033024670
-0.1226852813 0.0062025626 -0.1386839526
-0.1242781916 0.0050993829 -0.1374770954
-0.1275132818 0.0062025626 -0.1349793284
-0.1163691478 0.0035950470 -0.1435668890
-0.1171409680 0.0013886877 -0.1430054866
-0.1207457126 0.0034446134 -0.1402107627
-0.1258917188 0.0013886877 -0.1362908552
-0.1299478990 0.0035950470 -0.1331476333
-0.1253474005 0.0034446134 -0.1366797927
-0.1103658658 -0.0004165154 -0.1482293878
-0.1106151742 -0.0033248982 -0.1480787295
-0.1136890809 -0.0009179607 -0.1456864235
-0.1064764198 -0.0046286560 -0.1512726995
-0.1065017947 -0.0078379059 -0.1512980743
-0.1081443711 -0.0056816911 -0.1500075610
-0.1104372324 -0.0094425308 -0.1483007545
-0.1137350727 -0.0067347262 -0.1457324153
-0.1106393596 -0.0063837145 -0.1481029149
-0.1164722330 -0.0094425308 -0.1436699742
-0.1208234230 -0.0063837145 -0.1402884731
-0.1172051980 -0.0067347262 -0.1430697166
-0.1227962961 -0.0078379059 -0.1387949674
-0.1275989218 -0.0046286560 -0.1350649684
-0.1243634351 -0.0056816911 -0.1375623389
-0.1299796175 -0.0004165154 -0.1331793518
-0.1259099570 -0.0009179607 -0.1363090933
-0.1254009255 -0.0033248982 -0.1367333177
-0.1175383761 -0.0011686834 -0.1427362834
-0.1175601826 -0.0039266325 -0.1427580899
-0.1216874390 -0.0011686834 -0.1395526220
-0.0826105462 0.0062025626 -0.1657112320
-0.0844615752 0.0050993829 -0.1649577686
-0.0882329206 0.0062025626 -0.1633823556
-0.0752458046 0.0035950470 -0.1687931712
-0.0761366754 0.0013886877 -0.1684506825
-0.0803419251 0.0034446134 -0.1666840859
-0.0863272289 0.0013886877 -0.1642295941
-0.0910587325 0.0035950470 -0.1622432063
-0.0857007506 0.0034446134 -0.1644643756
-0.0682403362 -0.0004165154 -0.1717431727
-0.0685201972 -0.0033248982 -0.1716622135
-0.0721085311 -0.0009179607 -0.1701469334
-0.0636957816 -0.0046286560 -0.1736762361
-0.0637137813 -0.0078379059 -0.1737073609
-0.0656343790 -0.0056816911 -0.1728858976
-0.0682909603 -0.0094425308 -0.1718307112
-0.0721411555 -0.0067347262 -0.1702033471
-0.0685373532 -0.0063837145 -0.1716918793
-0.0753189283 -0.0094425308 -0.1689196157
-0.0803970491 -0.0063837145 -0.1667794056
-0.0761822370 -0.0067347262 -0.1685294672
-0.0826892948 -0.0078379059 -0.1658474030
-0.0882936695 -0.0046286560 -0.1634874018
-0.0845220428 -0.0056816911 -0.1650623285
-0.0910812321 -0.0004165154 -0.1622821123
-0.0863401661 -0.0009179607 -0.1642519650
-0.0857387187 -0.0033248982 -0.1645300295
-0.0765902668 -0.0011686834 -0.1682935416
-0.0766057353 -0.0039266325 -0.1683202895
-0.0814219948 -0.0011686834 -0.1662921635
-0.0369066243 0.0062025626 -0.1814457767
-0.0388895463 0.0050993829 -0.1811971097
-0.0429401245 0.0062025626 -0.1806515281
-0.0289951712 0.0035950470 -0.1825164636
-0.0299442652 0.0013886877 -0.1824162538
-0.0344634643 0.0034446134 -0.1817983047
-0.0408799843 0.0013886877 -0.1809766781
-0.0459643905 0.0035950470 -0.1802826392
-0.0402141442 0.0034446134 -0.1810412864
-0.0214648589 -0.0004165154 -0.1835527136
-0.0217560624 -0.0033248982 -0.1835469766
-0.0256143357 -0.0009179607 -0.1830120976
-0.0165747811 -0.0046286560 -0.1842436518
-0.0165840315 -0.0078379059 -0.1842784032
-0.0186518321 -0.0056816911 -0.1839820316
-0.0214908755 -0.0094425308 -0.1836504518
-0.0256311019 -0.0067347262 -0.1830750844
-0.0217648791 -0.0063837145 -0.1835800990
-0.0290327508 -0.0094425308 -0.1826576410
-0.0344917936 -0.0063837145 -0.1819047308
-0.0299676802 -0.0067347262 -0.1825042182
-0.0369470946 -0.0078379059 -0.1815978140
-0.0429713444 -0.0046286560 -0.1807688139
-0.0389206218 -0.0056816911 -0.1813138525
-0.0459759534 -0.0004165154 -0.1803260784
-0.0408866330 -0.0009179607 -0.1810016556
-0.0402336567 -0.0033248982 -0.1811145901
-0.0304230038 -0.0011686834 -0.1823818956
-0.0304309533 -0.0039266325 -0.1824117601
-0.0356080430 -0.0011686834 -0.1816993382
0.0113128129 0.0062025626 -0.1848154368
0.0093330706 0.0050993829 -0.1850883815
0.0052793127 0.0062025626 -0.1856096855
0.0192317819 0.0035950470 -0.1838021335
0.0182890475 0.0013886877 -0.1839508986
0.0137639223 0.0034446134 -0.1845236030
0.0073533284 0.0013886877 -0.1853904743
0.0022625626 0.0035950470 -0.1860359579
0.0080132424 0.0034446134 -0.1852806213
0.0267736571 -0.0004165154 -0.1828541659
0.0264908368 -0.0033248982 -0.1829239076
0.0226256257 -0.0009179607 -0.1834058173
0.0316758760 -0.0046286560 -0.1822559242
0.0316758760 -0.0078379059 -0.1822917988
0.0296018603 -0.0056816911 -0.1825407185
0.0267736571 -0.0094425308 -0.1829550631
0.0226256257 -0.0067347262 -0.1834708399
0.0264908368 -0.0063837145 -0.1829581005
0.0192317819 -0.0094425308 -0.1839478739
0.0137639223 -0.0063837145 -0.1846334688
0.0182890475 -0.0067347262 -0.1840417061
0.0113128129 -0.0078379059 -0.1849723880
0.0052793127 -0.0046286560 -0.1857307621
0.0093330706 -0.0056816911 -0.1852088976
0.0022625626 -0.0004165154 -0.1860808011
0.0073533284 -0.0009179607 -0.1854162592
0.0080132424 -0.0033248982 -0.1853562941
0.0178176803 -0.0011686834 -0.1840415368
0.0178176803 -0.0039266325 -0.1840723665
0.0126326410 -0.0011686834 -0.1847240943
0.0587613891 0.0062025626 -0.1755899172
0.0569197273 0.0050993829 -0.1763660256
0.0531390147 0.0062025626 -0.1779187936
0.0661482713 0.0035950470 -0.1725615024
0.0652761349 0.0013886877 -0.1729492809
0.0610534282 0.0034446134 -0.1746736756
0.0550855814 0.0013886877 -0.1771703694
0.0503353434 0.0035950470 -0.1791114673
0.0556946026 0.0034446134 -0.1768933860
0.0731878022 -0.0004165154 -0.1696938461
0.0729326366 -0.0033248982 -0.1698345057
0.0693238652 -0.0009179607 -0.1713003786
0.0777681225 -0.0046286560 -0.1678472452
0.0777773728 -0.0078379059 -0.1678819966
0.0758384666 -0.0056816911 -0.1686591993
0.0732138189 -0.0094425308 -0.1697915844
0.0693406315 -0.0067347262 -0.1713633654
0.0729414533 -0.0063837145 -0.1698676281
0.0661858509 -0.0094425308 -0.1727026799
0.0610817574 -0.0063837145 -0.1747801017
0.0652995499 -0.0067347262 -0.1730372453
0.0588018594 -0.0078379059 -0.1757419545
0.0531702347 -0.0046286560 -0.1780360795
0.0569508027 -0.0056816911 -0.1764827685
0.0503469064 -0.0004165154 -0.1791549065
0.0550922301 -0.0009179607 -0.1771953470
0.0557141151 -0.0033248982 -0.1769666896
0.0648442583 -0.0011686834 -0.1731589169
0.0648522079 -0.0039266325 -0.1731887814
0.0600125304 -0.0011686834 -0.1751602951
-0.1640351699 -0.0273626555 -0.0816425782
-0.1633914486 -0.0262681126 -0.0835569860
-0.1617062935 -0.0273626555 -0.0872649525
-0.1673764996 -0.0247755540 -0.0744276411
-0.1672534953 -0.0225864681 -0.0754452696
-0.1652823792 -0.0246262982 -0.0795324042
-0.1630324068 -0.0225864681 -0.0856358232
-0.1608265347 -0.0247755540 -0.0902405690
-0.1630626689 -0.0246262982 -0.0848912298
-0.1707255635 -0.0207953978 -0.0676526414
-0.1709339246 -0.0179097846 -0.0680995921
-0.1691792071 -0.0202978783 -0.0715496448
-0.1730776425 -0.0166162338 -0.0633500788
-0.1734280172 -0.0134321089 -0.0635524533
-0.1723920579 -0.0155714428 -0.0653491741
-0.1717109925 -0.0118400464 -0.0682218197
-0.1698142613 -0.0145266518 -0.0719164486
-0.1712678755 -0.0148749155 -0.0682924803
-0.1687998970 -0.0118400464 -0.0752497877
-0.1663554018 -0.0148749155 -0.0801521762
-0.1681403813 -0.0145266518 -0.0759575302
-0.1655680593 -0.0134321089 -0.0825279668
-0.1628888082 -0.0166162338 -0.0879479666
-0.1645684887 -0.0155714428 -0.0842368380
-0.1612645031 -0.0207953978 -0.0904935372
-0.1632842387 -0.0202978783 -0.0857812798
-0.1638017406 -0.0179097846 -0.0853181136
-0.1673507567 -0.0200491185 -0.0760457848
-0.1676518600 -0.0173127612 -0.0762197004
-0.1653493785 -0.0200491185 -0.0808775128
-0.1332990450 -0.0523854687 -0.1175778741
-0.1323080904 -0.0513204023 -0.1193381244
-0.1296586709 -0.0523854687 -0.1223221244
-0.1385581382 -0.0498680389 -0.1118321476
-0.1383964160 -0.0477379060 -0.1129805230
-0.1352868050 -0.0497228026 -0.1161593803
-0.1317982379 -0.0477379060 -0.1215794767
-0.1283195858 -0.0498680389 -0.1251753516
-0.1318170733 -0.0497228026 -0.1206812439
-0.1438487628 -0.0459950700 -0.1066419916
-0.1442147341 -0.0431871675 -0.1074009922
-0.1414385252 -0.0455109488 -0.1099961834
-0.1475837317 -0.0419284526 -0.1035644531
-0.1481758573 -0.0388300774 -0.1041565787
-0.1465266443 -0.0409117982 -0.1053895803
-0.1455141160 -0.0372808898 -0.1083073448
-0.1425117528 -0.0398951439 -0.1110694110
-0.1447791038 -0.0402340286 -0.1079653619
-0.1409636483 -0.0372808898 -0.1142376577
-0.1371001895 -0.0402340286 -0.1179727649
-0.1398952339 -0.0398951439 -0.1144793409
-0.1358895944 -0.0388300774 -0.1201684235
-0.1316570947 -0.0419284526 -0.1243205483
-0.1342972623 -0.0409117982 -0.1213272963
-0.1290597428 -0.0459950700 -0.1259155086
-0.1322238281 -0.0455109488 -0.1220050670
-0.1330660882 -0.0431871675 -0.1219302588
-0.1385838619 -0.0452688883 -0.1138230177
-0.1390927198 -0.0426062221 -0.1143318756
-0.1354554153 -0.0452688883 -0.1179001078
-0.0935560922 -0.0764164692 -0.1406242070
-0.0922719324 -0.0754009028 -0.1421485060
-0.0889853426 -0.0764164692 -0.1441315827
-0.1000648420 -0.0740160395 -0.1369034558
-0.0997818971 -0.0719849067 -0.1381983659
-0.0959520026 -0.0738775532 -0.1401329389
-0.0914974134 -0.0719849067 -0.1445554844
-0.0872096088 -0.0740160395 -0.1467679500
-0.0915955069 -0.0738775532 -0.1434759064
-0.1065623420 -0.0703230707 -0.1338772046
