0.0595835444 -0.3387140036 -0.0178299084 0.0000000000 1.0000000000 0.0000000000
0.0654586713 -0.3387140036 -0.0175908284 0.0000000000 1.0000000000 0.0000000000
0.0452373043 -0.3387140036 -0.0186837659 0.0000000000 1.0000000000 0.0000000000
0.0466036129 -0.3387140036 -0.0180689885 0.0000000000 1.0000000000 0.0000000000
0.0531618940 -0.3387140036 -0.0179892952 0.0000000000 1.0000000000 0.0000000000
0.0624527924 -0.3387140036 -0.0167483557 0.0000000000 1.0000000000 0.0000000000
0.0698308587 -0.3387140036 -0.0166345081 0.0000000000 1.0000000000 0.0000000000
0.0614963764 -0.3387140036 -0.0172948245 0.0000000000 1.0000000000 0.0000000000
0.0343068356 -0.3387140036 -0.0186837659 0.0000000000 1.0000000000 0.0000000000
0.0347167282 -0.3387140036 -0.0179892952 0.0000000000 1.0000000000 0.0000000000
0.0403185934 -0.3387140036 -0.0180689885 0.0000000000 1.0000000000 0.0000000000
0.0272020310 -0.3387140036 -0.0183194534 0.0000000000 1.0000000000 0.0000000000
0.0272020310 -0.3387140036 -0.0175908284 0.0000000000 1.0000000000 0.0000000000
0.0302079099 -0.3387140036 -0.0178299084 0.0000000000 1.0000000000 0.0000000000
0.0343068356 -0.3387140036 -0.0166345081 0.0000000000 1.0000000000 0.0000000000
0.0403185934 -0.3387140036 -0.0167483557 0.0000000000 1.0000000000 0.0000000000
0.0347167282 -0.3387140036 -0.0172948245 0.0000000000 1.0000000000 0.0000000000
0.0452373043 -0.3387140036 -0.0157237268 0.0000000000 1.0000000000 0.0000000000
0.0531618940 -0.3387140036 -0.0157578811 0.0000000000 1.0000000000 0.0000000000
0.0466036129 -0.3387140036 -0.0162246565 0.0000000000 1.0000000000 0.0000000000
0.0567142963 -0.3387140036 -0.0151317190 0.0000000000 1.0000000000 0.0000000000
0.0654586713 -0.3387140036 -0.0151317190 0.0000000000 1.0000000000 0.0000000000
0.0595835444 -0.3387140036 -0.0153821839 0.0000000000 1.0000000000 0.0000000000
0.0698308587 -0.3387140036 -0.0157237268 0.0000000000 1.0000000000 0.0000000000
0.0624527924 -0.3387140036 -0.0162246565 0.0000000000 1.0000000000 0.0000000000
0.0614963764 -0.3387140036 -0.0157578811 0.0000000000 1.0000000000 0.0000000000
0.0472867672 -0.3387140036 -0.0174314417 0.0000000000 1.0000000000 0.0000000000
0.0472867672 -0.3387140036 -0.0168052796 0.0000000000 1.0000000000 0.0000000000
0.0548014643 -0.3387140036 -0.0168052796 0.0000000000 1.0000000000 0.0000000000
0.0600259867 -0.0690904054 -0.0111239378 0.1563582999 0.9877004010 0.0000000000
0.0618234145 -0.0691452842 -0.0108734299 0.1630078787 0.9866247673 0.0000000000
0.0655038620 -0.0692576551 -0.0111239378 0.1766930804 0.9842659983 0.0000000000
0.0528362755 -0.0688708901 -0.0105318284 0.1295028475 0.9915790500 0.0000000000
0.0536921935 -0.0688970229 -0.0100308127 0.1326716364 0.9911600461 0.0000000000
0.0578005999 -0.0690224602 -0.0104976682 0.1480198664 0.9889843877 0.0000000000
0.0636208423 -0.0692001630 -0.0100308127 0.1696525161 0.9855039441 0.0000000000
0.0682427996 -0.0693412799 -0.0105318284 0.1867935067 0.9823991988 0.0000000000
0.0630216997 -0.0691818700 -0.0104976682 0.1674394917 0.9858823543 0.0000000000
0.0459889314 -0.0686618280 -0.0096208908 0.1038295731 0.9945951034 0.0000000000
0.0462457068 -0.0686696678 -0.0089604611 0.1047739266 0.9944960655 0.0000000000
0.0497549706 -0.0687768122 -0.0095070237 0.1179313031 0.9930217559 0.0000000000
0.0415381578 -0.0685259376 -0.0086644064 0.0871154139 0.9961982256 0.0000000000
0.0415381578 -0.0685259376 -0.0079356564 0.0871154139 0.9961982256 0.0000000000
0.0434211774 -0.0685834297 -0.0084252853 0.0941757166 0.9955555908 0.0000000000
0.0459889314 -0.0686618280 -0.0075712814 0.1038295731 0.9945951034 0.0000000000
0.0497549706 -0.0687768122 -0.0081861642 0.1179313031 0.9930217559 0.0000000000
0.0462457068 -0.0686696678 -0.0082658713 0.1047739266 0.9944960655 0.0000000000
0.0528362755 -0.0688708901 -0.0075712814 0.1295028475 0.9915790500 0.0000000000
0.0578005999 -0.0690224602 -0.0082658713 0.1480198664 0.9889843877 0.0000000000
0.0536921935 -0.0688970229 -0.0081861642 0.1326716364 0.9911600461 0.0000000000
0.0600259867 -0.0690904054 -0.0079356564 0.1563582999 0.9877004010 0.0000000000
0.0655038620 -0.0692576551 -0.0086644064 0.1766930804 0.9842659983 0.0000000000
0.0618234145 -0.0691452842 -0.0084252853 0.1630078787 0.9866247673 0.0000000000
0.0682427996 -0.0693412799 -0.0096208908 0.1867935067 0.9823991988 0.0000000000
0.0636208423 -0.0692001630 -0.0095070237 0.1696525161 0.9855039441 0.0000000000
0.0630216997 -0.0691818700 -0.0089604611 0.1674394917 0.9858823543 0.0000000000
0.0541201525 -0.0689100893 -0.0094500901 0.1342659372 0.9909453356 0.0000000000
0.0541201525 -0.0689100893 -0.0088238205 0.1342659372 0.9909453356 0.0000000000
0.0588277015 -0.0690538195 -0.0094500901 0.1518328244 0.9884061885 0.0000000000
0.0600259867 -0.0690904054 -0.0079356564 -0.1563582999 -0.9877004010 0.0000000000
0.0618234145 -0.0691452842 -0.0084252853 -0.1630078787 -0.9866247673 0.0000000000
0.0655038620 -0.0692576551 -0.0086644064 -0.1766930804 -0.9842659983 0.0000000000
0.0528362755 -0.0688708901 -0.0075712814 -0.1295028475 -0.9915790500 0.0000000000
0.0536921935 -0.0688970229 -0.0081861642 -0.1326716364 -0.9911600461 0.0000000000
0.0578005999 -0.0690224602 -0.0082658713 -0.1480198664 -0.9889843877 0.0000000000
0.0636208423 -0.0692001630 -0.0095070237 -0.1696525161 -0.9855039441 0.0000000000
0.0682427996 -0.0693412799 -0.0096208908 -0.1867935067 -0.9823991988 0.0000000000
0.0630216997 -0.0691818700 -0.0089604611 -0.1674394917 -0.9858823543 0.0000000000
0.0459889314 -0.0686618280 -0.0075712814 -0.1038295731 -0.9945951034 0.0000000000
0.0462457068 -0.0686696678 -0.0082658713 -0.1047739266 -0.9944960655 0.0000000000
0.0497549706 -0.0687768122 -0.0081861642 -0.1179313031 -0.9930217559 0.0000000000
0.0415381578 -0.0685259376 -0.0079356564 -0.0871154139 -0.9961982256 0.0000000000
0.0415381578 -0.0685259376 -0.0086644064 -0.0871154139 -0.9961982256 0.0000000000
0.0434211774 -0.0685834297 -0.0084252853 -0.0941757166 -0.9955555908 0.0000000000
0.0459889314 -0.0686618280 -0.0096208908 -0.1038295731 -0.9945951034 0.0000000000
0.0497549706 -0.0687768122 -0.0095070237 -0.1179313031 -0.9930217559 0.0000000000
0.0462457068 -0.0686696678 -0.0089604611 -0.1047739266 -0.9944960655 0.0000000000
0.0528362755 -0.0688708901 -0.0105318284 -0.1295028475 -0.9915790500 0.0000000000
0.0578005999 -0.0690224602 -0.0104976682 -0.1480198664 -0.9889843877 0.0000000000
0.0536921935 -0.0688970229 -0.0100308127 -0.1326716364 -0.9911600461 0.0000000000
0.0600259867 -0.0690904054 -0.0111239378 -0.1563582999 -0.9877004010 0.0000000000
0.0655038620 -0.0692576551 -0.0111239378 -0.1766930804 -0.9842659983 0.0000000000
0.0618234145 -0.0691452842 -0.0108734299 -0.1630078787 -0.9866247673 0.0000000000
0.0682427996 -0.0693412799 -0.0105318284 -0.1867935067 -0.9823991988 0.0000000000
0.0636208423 -0.0692001630 -0.0100308127 -0.1696525161 -0.9855039441 0.0000000000
0.0630216997 -0.0691818700 -0.0104976682 -0.1674394917 -0.9858823543 0.0000000000
0.0541201525 -0.0689100893 -0.0088238205 -0.1342659372 -0.9909453356 0.0000000000
0.0541201525 -0.0689100893 -0.0094500901 -0.1342659372 -0.9909453356 0.0000000000
0.0588277015 -0.0690538195 -0.0094500901 -0.1518328244 -0.9884061885 0.0000000000
0.1560588023 -0.1316454677 0.0179786399 -0.9290890667 -0.3698560614 0.0000000000
0.1550258783 -0.1298705422 0.0135552279 -0.9172997103 -0.3981974905 0.0000000000
0.1545214271 -0.1290037181 0.0044977652 -0.9113963851 -0.4115296212 0.0000000000
0.1568274898 -0.1329663425 0.0356722880 -0.9370709523 -0.3491389843 0.0000000000
0.1555303296 -0.1307373663 0.0335659013 -0.9229984901 -0.3848035697 0.0000000000
0.1553621792 -0.1304484249 0.0234552453 -0.9211260182 -0.3892645099 0.0000000000
0.1527438371 -0.1259491952 0.0091318159 -0.8882768731 -0.4593083896 0.0000000000
0.1525036222 -0.1255364218 -0.0022426721 -0.8850473881 -0.4655009354 0.0000000000
0.1538968685 -0.1279305074 0.0106062866 -0.9034698828 -0.4286515728 0.0000000000
0.1568274898 -0.1329663425 0.0525233814 -0.9370709523 -0.3491389843 0.0000000000
0.1553621792 -0.1304484249 0.0518914654 -0.9211260182 -0.3892645099 0.0000000000
0.1555303296 -0.1307373663 0.0432552800 -0.9229984901 -0.3848035697 0.0000000000
0.1560588023 -0.1316454677 0.0634765921 -0.9290890667 -0.3698560614 0.0000000000
0.1545214271 -0.1290037181 0.0634765921 -0.9113963851 -0.4115296212 0.0000000000
0.1550258783 -0.1298705422 0.0588425414 -0.9172997103 -0.3981974905 0.0000000000
0.1525036222 -0.1255364218 0.0525233814 -0.8850473881 -0.4655009354 0.0000000000
0.1527438371 -0.1259491952 0.0432552800 -0.8882768731 -0.4593083896 0.0000000000
0.1538968685 -0.1279305074 0.0518914654 -0.9034698828 -0.4286515728 0.0000000000
0.1505819033 -0.1222342349 0.0356722880 -0.8569203086 -0.5154489157 0.0000000000
0.1506539678 -0.1223580669 0.0234552453 -0.8580440737 -0.5135760582 0.0000000000
0.1516388487 -0.1240504377 0.0335659013 -0.8727197648 -0.4882214785 0.0000000000
0.1493327860 -0.1200878134 0.0179786399 -0.8371086056 -0.5470367286 0.0000000000
0.1493327860 -0.1200878134 0.0044977652 -0.8371086056 -0.5470367286 0.0000000000
0.1498612587 -0.1209959148 0.0135552279 -0.8456766152 -0.5336956647 0.0000000000
0.1505819033 -0.1222342349 -0.0022426721 -0.8569203086 -0.5154489157 0.0000000000
0.1516388487 -0.1240504377 0.0091318159 -0.8727197648 -0.4882214785 0.0000000000
0.1506539678 -0.1223580669 0.0106062866 -0.8580440737 -0.5135760582 0.0000000000
0.1541851263 -0.1284258354 0.0325127080 -0.9070399967 -0.4210444684 0.0000000000
0.1528639445 -0.1261555819 0.0325127080 -0.8898942037 -0.4561669718 0.0000000000
0.1528639445 -0.1261555819 0.0209275813 -0.8898942037 -0.4561669718 0.0000000000
0.1606993075 -0.1554842908 0.0179786399 -0.9999883610 -0.0048247150 0.0000000000
0.1603885663 -0.1534543049 0.0135552279 -0.9993360214 -0.0364350980 0.0000000000
0.1602368089 -0.1524629164 0.0044977652 -0.9986746954 -0.0514670056 0.0000000000
0.1609305567 -0.1569949780 0.0356722880 -0.9998370717 0.0180507624 0.0000000000
0.1605403236 -0.1544456934 0.0335659013 -0.9997703886 -0.0214282553 0.0000000000
0.1604897378 -0.1541152305 0.0234552453 -0.9996510234 -0.0264164989 0.0000000000
0.1597020450 -0.1489694524 0.0091318159 -0.9943654279 -0.1060065836 0.0000000000
0.1596297796 -0.1484973626 -0.0022426721 -0.9935737406 -0.1131866688 0.0000000000
0.1600489189 -0.1512354831 0.0106062866 -0.9974861559 -0.0708616169 0.0000000000
0.1609305567 -0.1569949780 0.0525233814 -0.9998370717 0.0180507624 0.0000000000
0.1604897378 -0.1541152305 0.0518914654 -0.9996510234 -0.0264164989 0.0000000000
0.1605403236 -0.1544456934 0.0432552800 -0.9997703886 -0.0214282553 0.0000000000
0.1606993075 -0.1554842908 0.0634765921 -0.9999883610 -0.0048247150 0.0000000000
0.1602368089 -0.1524629164 0.0634765921 -0.9986746954 -0.0514670056 0.0000000000
0.1603885663 -0.1534543049 0.0588425414 -0.9993360214 -0.0364350980 0.0000000000
0.1596297796 -0.1484973626 0.0525233814 -0.9935737406 -0.1131866688 0.0000000000
0.1597020450 -0.1489694524 0.0432552800 -0.9943654279 -0.1060065836 0.0000000000
0.1600489189 -0.1512354831 0.0518914654 -0.9974861559 -0.0708616169 0.0000000000
0.1590516565 -0.1447206447 0.0356722880 -0.9851465507 -0.1717156767 0.0000000000
0.1590733361 -0.1448622716 0.0234552453 -0.9855336479 -0.1694798774 0.0000000000
0.1593696242 -0.1467978396 0.0335659013 -0.9902054094 -0.1396182192 0.0000000000
0.1586758764 -0.1422657780 0.0179786399 -0.9778131615 -0.2094789278 0.0000000000
0.1586758764 -0.1422657780 0.0044977652 -0.9778131615 -0.2094789278 0.0000000000
0.1588348603 -0.1433043755 0.0135552279 -0.9811112332 -0.1934444314 0.0000000000
0.1590516565 -0.1447206447 -0.0022426721 -0.9851465507 -0.1717156767 0.0000000000
0.1593696242 -0.1467978396 0.0091318159 -0.9902054094 -0.1396182192 0.0000000000
0.1590733361 -0.1448622716 0.0106062866 -0.9855336479 -0.1694798774 0.0000000000
0.1601356374 -0.1518019908 0.0325127080 -0.9980631514 -0.0622088887 0.0000000000
0.1597381777 -0.1492054972 0.0325127080 -0.9947454958 -0.1023787017 0.0000000000
0.1597381777 -0.1492054972 0.0209275813 -0.9947454958 -0.1023787017 0.0000000000
0.1575497496 -0.1737762759 -0.0086644064 0.9877203418 -0.1562322833 0.0000000000
0.1577824680 -0.1727516860 -0.0084252853 0.9889285785 -0.1483922729 0.0000000000
0.1575497496 -0.1737762759 -0.0079356564 0.9877203418 -0.1562322833 0.0000000000
0.1580998112 -0.1713545179 -0.0096208908 0.9904792283 -0.1376622617 0.0000000000
0.1585652479 -0.1693053381 -0.0095070237 0.9925399947 -0.1219194773 0.0000000000
0.1581315455 -0.1712148011 -0.0089604611 0.9906260826 -0.1366014808 0.0000000000
0.1585652479 -0.1693053381 -0.0081861642 0.9925399947 -0.1219194773 0.0000000000
0.1580998112 -0.1713545179 -0.0075712814 0.9904792283 -0.1376622617 0.0000000000
0.1581315455 -0.1712148011 -0.0082658713 0.9906260826 -0.1366014808 0.0000000000
0.1589460598 -0.1676287364 -0.0105318284 0.9940435193 -0.1089838604 0.0000000000
0.1595595900 -0.1649275447 -0.0104976682 0.9961053996 -0.0881704758 0.0000000000
0.1590518408 -0.1671630137 -0.0100308127 0.9944283080 -0.1054150855 0.0000000000
0.1598346208 -0.1637166657 -0.0111239378 0.9968906062 -0.0787979648 0.0000000000
0.1605116196 -0.1607360404 -0.0111239378 0.9984412483 -0.0558128461 0.0000000000
0.1600567610 -0.1627386480 -0.0108734299 0.9974566424 -0.0712758476 0.0000000000
0.1608501191 -0.1592457278 -0.0105318284 0.9990161182 -0.0443485690 0.0000000000
0.1602789013 -0.1617606304 -0.0100308127 0.9979657995 -0.0637515728 0.0000000000
0.1602048545 -0.1620866363 -0.0104976682 0.9978024565 -0.0662590198 0.0000000000
0.1608501191 -0.1592457278 -0.0096208908 0.9990161182 -0.0443485690 0.0000000000
0.1602048545 -0.1620866363 -0.0089604611 0.9978024565 -0.0662590198 0.0000000000
0.1602789013 -0.1617606304 -0.0095070237 0.9979657995 -0.0637515728 0.0000000000
0.1605116196 -0.1607360404 -0.0086644064 0.9984412483 -0.0558128461 0.0000000000
0.1598346208 -0.1637166657 -0.0079356564 0.9968906062 -0.0787979648 0.0000000000
0.1600567610 -0.1627386480 -0.0084252853 0.9974566424 -0.0712758476 0.0000000000
0.1589460598 -0.1676287364 -0.0075712814 0.9940435193 -0.1089838604 0.0000000000
0.1590518408 -0.1671630137 -0.0081861642 0.9944283080 -0.1054150855 0.0000000000
0.1595595900 -0.1649275447 -0.0082658713 0.9961053996 -0.0881704758 0.0000000000
0.1591047314 -0.1669301523 -0.0094500901 0.9946165846 -0.1036235955 0.0000000000
0.1596865273 -0.1643686775 -0.0094500901 0.9964768056 -0.0838688019 0.0000000000
0.1591047314 -0.1669301523 -0.0088238205 0.9946165846 -0.1036235955 0.0000000000
0.1605116196 -0.1607360404 -0.0086644064 -0.9984412483 0.0558128461 0.0000000000
0.1600567610 -0.1627386480 -0.0084252853 -0.9974566424 0.0712758476 0.0000000000
0.1598346208 -0.1637166657 -0.0079356564 -0.9968906062 0.0787979648 0.0000000000
0.1608501191 -0.1592457278 -0.0096208908 -0.9990161182 0.0443485690 0.0000000000
0.1602789013 -0.1617606304 -0.0095070237 -0.9979657995 0.0637515728 0.0000000000
0.1602048545 -0.1620866363 -0.0089604611 -0.9978024565 0.0662590198 0.0000000000
0.1590518408 -0.1671630137 -0.0081861642 -0.9944283080 0.1054150855 0.0000000000
0.1589460598 -0.1676287364 -0.0075712814 -0.9940435193 0.1089838604 0.0000000000
0.1595595900 -0.1649275447 -0.0082658713 -0.9961053996 0.0881704758 0.0000000000
0.1608501191 -0.1592457278 -0.0105318284 -0.9990161182 0.0443485690 0.0000000000
0.1602048545 -0.1620866363 -0.0104976682 -0.9978024565 0.0662590198 0.0000000000
0.1602789013 -0.1617606304 -0.0100308127 -0.9979657995 0.0637515728 0.0000000000
0.1605116196 -0.1607360404 -0.0111239378 -0.9984412483 0.0558128461 0.0000000000
0.1598346208 -0.1637166657 -0.0111239378 -0.9968906062 0.0787979648 0.0000000000
0.1600567610 -0.1627386480 -0.0108734299 -0.9974566424 0.0712758476 0.0000000000
0.1589460598 -0.1676287364 -0.0105318284 -0.9940435193 0.1089838604 0.0000000000
0.1590518408 -0.1671630137 -0.0100308127 -0.9944283080 0.1054150855 0.0000000000
0.1595595900 -0.1649275447 -0.0104976682 -0.9961053996 0.0881704758 0.0000000000
0.1580998112 -0.1713545179 -0.0096208908 -0.9904792283 0.1376622617 0.0000000000
0.1581315455 -0.1712148011 -0.0089604611 -0.9906260826 0.1366014808 0.0000000000
0.1585652479 -0.1693053381 -0.0095070237 -0.9925399947 0.1219194773 0.0000000000
0.1575497496 -0.1737762759 -0.0086644064 -0.9877203418 0.1562322833 0.0000000000
0.1575497496 -0.1737762759 -0.0079356564 -0.9877203418 0.1562322833 0.0000000000
0.1577824680 -0.1727516860 -0.0084252853 -0.9889285785 0.1483922729 0.0000000000
0.1580998112 -0.1713545179 -0.0075712814 -0.9904792283 0.1376622617 0.0000000000
0.1585652479 -0.1693053381 -0.0081861642 -0.9925399947 0.1219194773 0.0000000000
0.1581315455 -0.1712148011 -0.0082658713 -0.9906260826 0.1366014808 0.0000000000
0.1596865273 -0.1643686775 -0.0094500901 -0.9964768056 0.0838688019 0.0000000000
0.1591047314 -0.1669301523 -0.0094500901 -0.9946165846 0.1036235955 0.0000000000
0.1591047314 -0.1669301523 -0.0088238205 -0.9946165846 0.1036235955 0.0000000000
0.1605116196 -0.1607360404 0.0752723574 -0.9984298480 0.0560164137 0.0000000000
0.1600567610 -0.1627386480 0.0796957695 -0.9974149109 0.0718574670 0.0000000000
0.1598346208 -0.1637166657 0.0887532322 -0.9968766986 0.0789737162 0.0000000000
0.1608501191 -0.1592457278 0.0575787094 -0.9989963059 0.0447926415 0.0000000000
0.1602789013 -0.1617606304 0.0596850961 -0.9979074599 0.0646583442 0.0000000000
0.1602048545 -0.1620866363 0.0697957521 -0.9977494571 0.0670523736 0.0000000000
0.1590518408 -0.1671630137 0.0841191815 -0.9943571400 0.1060842970 0.0000000000
0.1589460598 -0.1676287364 0.0954936695 -0.9940123832 0.1092674792 0.0000000000
0.1595595900 -0.1649275447 0.0826447108 -0.9960447403 0.0888531111 0.0000000000
0.1608501191 -0.1592457278 0.0407276160 -0.9989963059 0.0447926415 0.0000000000
0.1602048545 -0.1620866363 0.0413595320 -0.9977494571 0.0670523736 0.0000000000
0.1602789013 -0.1617606304 0.0499957174 -0.9979074599 0.0646583442 0.0000000000
0.1605116196 -0.1607360404 0.0297744053 -0.9984298480 0.0560164137 0.0000000000
0.1598346208 -0.1637166657 0.0297744053 -0.9968766986 0.0789737162 0.0000000000
0.1600567610 -0.1627386480 0.0344084560 -0.9974149109 0.0718574670 0.0000000000
0.1589460598 -0.1676287364 0.0407276160 -0.9940123832 0.1092674792 0.0000000000
0.1590518408 -0.1671630137 0.0499957174 -0.9943571400 0.1060842970 0.0000000000
0.1595595900 -0.1649275447 0.0413595320 -0.9960447403 0.0888531111 0.0000000000
0.1580998112 -0.1713545179 0.0575787094 -0.9904498408 0.1378735392 0.0000000000
0.1581315455 -0.1712148011 0.0697957521 -0.9905660075 0.1370364358 0.0000000000
0.1585652479 -0.1693053381 0.0596850961 -0.9924692976 0.1224936461 0.0000000000
0.1575497496 -0.1737762759 0.0752723574 -0.9877076207 0.1563126866 0.0000000000
0.1575497496 -0.1737762759 0.0887532322 -0.9877076207 0.1563126866 0.0000000000
0.1577824680 -0.1727516860 0.0796957695 -0.9888860035 0.1486757278 0.0000000000
0.1580998112 -0.1713545179 0.0954936695 -0.9904498408 0.1378735392 0.0000000000
0.1585652479 -0.1693053381 0.0841191815 -0.9924692976 0.1224936461 0.0000000000
0.1581315455 -0.1712148011 0.0826447108 -0.9905660075 0.1370364358 0.0000000000
0.1596865273 -0.1643686775 0.0607382894 -0.9964033992 0.0847364501 0.0000000000
0.1591047314 -0.1669301523 0.0607382894 -0.9945388049 0.1043674542 0.0000000000
0.1591047314 -0.1669301523 0.0723234161 -0.9945388049 0.1043674542 0.0000000000
0.1578086917 -0.1366007011 0.0752723574 -0.9556583817 -0.2944776010 0.0000000000
0.1581194329 -0.1386306870 0.0796957695 -0.9644900484 -0.2641191900 0.0000000000
0.1582711902 -0.1396220755 0.0887532322 -0.9683548547 -0.2495773934 0.0000000000
0.1575774425 -0.1350900140 0.0575787094 -0.9486722812 -0.3162608145 0.0000000000
0.1579676756 -0.1376392986 0.0596850961 -0.9604161773 -0.2785691411 0.0000000000
0.1580182614 -0.1379697614 0.0697957521 -0.9617941967 -0.2737734888 0.0000000000
0.1588059542 -0.1431155396 0.0841191815 -0.9805547485 -0.1962457264 0.0000000000
0.1588782195 -0.1435876293 0.0954936695 -0.9819467957 -0.1891573164 0.0000000000
0.1584590803 -0.1408495088 0.0826447108 -0.9730212989 -0.2307153050 0.0000000000
0.1575774425 -0.1350900140 0.0407276160 -0.9486722812 -0.3162608145 0.0000000000
0.1580182614 -0.1379697614 0.0413595320 -0.9617941967 -0.2737734888 0.0000000000
0.1579676756 -0.1376392986 0.0499957174 -0.9604161773 -0.2785691411 0.0000000000
0.1578086917 -0.1366007011 0.0297744053 -0.9556583817 -0.2944776010 0.0000000000
0.1582711902 -0.1396220755 0.0297744053 -0.9683548547 -0.2495773934 0.0000000000
0.1581194329 -0.1386306870 0.0344084560 -0.9644900484 -0.2641191900 0.0000000000
0.1588782195 -0.1435876293 0.0407276160 -0.9819467957 -0.1891573164 0.0000000000
0.1588059542 -0.1431155396 0.0499957174 -0.9805547485 -0.1962457264 0.0000000000
0.1584590803 -0.1408495088 0.0413595320 -0.9730212989 -0.2307153050 0.0000000000
0.1594563427 -0.1473643472 0.0575787094 -0.9914104982 -0.1307869418 0.0000000000
0.1594346631 -0.1472227203 0.0697957521 -0.9911111605 -0.1330363389 0.0000000000
0.1591383750 -0.1452871524 0.0596850961 -0.9866378926 -0.1629284167 0.0000000000
0.1598321227 -0.1498192139 0.0752723574 -0.9957072147 -0.0925588604 0.0000000000
0.1598321227 -0.1498192139 0.0887532322 -0.9957072147 -0.0925588604 0.0000000000
0.1596731389 -0.1487806165 0.0796957695 -0.9940586273 -0.1088459713 0.0000000000
0.1594563427 -0.1473643472 0.0954936695 -0.9914104982 -0.1307869418 0.0000000000
0.1591383750 -0.1452871524 0.0841191815 -0.9866378926 -0.1629284167 0.0000000000
0.1594346631 -0.1472227203 0.0826447108 -0.9911111605 -0.1330363389 0.0000000000
0.1583723618 -0.1402830011 0.0607382894 -0.9709839626 -0.2391446097 0.0000000000
0.1587698215 -0.1428794947 0.0607382894 -0.9798323666 -0.1998212534 0.0000000000
0.1587698215 -0.1428794947 0.0723234161 -0.9798323666 -0.1998212534 0.0000000000
0.0210086101 -0.0439449216 0.0930120760 -0.5424341124 -0.8242238970 -0.1625429216
0.0219650535 -0.0429328258 0.0872247970 -0.5459721404 -0.8192104746 -0.1755238450
0.0239234852 -0.0424385464 0.0843984514 -0.5897486310 -0.7880793509 -0.1764298411
0.0171828365 -0.0446981092 0.0973188883 -0.4443873990 -0.8810454829 -0.1621070529
0.0176382857 -0.0434271051 0.0900511425 -0.4269407806 -0.8860170095 -0.1808187729
0.0198244421 -0.0432623453 0.0891090273 -0.4906610906 -0.8531413236 -0.1772048984
0.0229214969 -0.0406968002 0.0744389479 -0.5218665702 -0.8274530032 -0.2073084909
0.0253809227 -0.0404614290 0.0730930691 -0.5854949099 -0.7850624236 -0.2021699818
0.0226026824 -0.0418265815 0.0808991664 -0.5386772211 -0.8206205189 -0.1908109417
0.0135392426 -0.0446981092 0.0973188883 -0.3257809127 -0.9299154820 -0.1706575321
0.0136758774 -0.0432623453 0.0891090273 -0.2940176239 -0.9363505797 -0.1918364636
0.0155432192 -0.0434271051 0.0900511425 -0.3595214111 -0.9144493259 -0.1858138460
0.0111709066 -0.0439449216 0.0930120760 -0.2280749929 -0.9557879664 -0.1856102393
0.0111709066 -0.0424385464 0.0843984514 -0.1914142459 -0.9594888011 -0.2067409660
0.0121728949 -0.0429328258 0.0872247970 -0.2361931035 -0.9511584834 -0.1987721240
0.0135392426 -0.0404614290 0.0730930691 -0.2212865815 -0.9473526351 -0.2314200372
0.0155432192 -0.0406968002 0.0744389479 -0.2920422050 -0.9294092440 -0.2256320182
0.0136758774 -0.0418265815 0.0808991664 -0.2585906114 -0.9423384312 -0.2124362887
0.0171828365 -0.0385784601 0.0623260383 -0.2940681633 -0.9218096947 -0.2525684108
0.0198244421 -0.0386490714 0.0627298020 -0.3796340853 -0.8916613397 -0.2466130908
0.0176382857 -0.0396140930 0.0682479052 -0.3334334566 -0.9124073295 -0.2373499424
0.0210086101 -0.0373545303 0.0553274683 -0.3862358771 -0.8842825288 -0.2624238109
0.0239234852 -0.0373545303 0.0553274683 -0.4747937996 -0.8424879633 -0.2545287402
0.0219650535 -0.0378723468 0.0582884018 -0.4276027471 -0.8679687718 -0.2525591057
0.0253809227 -0.0385784601 0.0623260383 -0.5441424581 -0.8064975808 -0.2312371886
0.0229214969 -0.0396140930 0.0682479052 -0.4968913253 -0.8384387263 -0.2238738775
0.0226026824 -0.0386490714 0.0627298020 -0.4650298773 -0.8523269844 -0.2393447826
0.0178660103 -0.0421090269 0.0825142210 -0.4018182333 -0.8935243575 -0.2003904438
0.0178660103 -0.0408144857 0.0751118873 -0.3700769592 -0.9026662934 -0.2196283385
0.0203709811 -0.0408144857 0.0751118873 -0.4487095135 -0.8678312015 -0.2133747365
0.0264740009 -0.0627215476 0.0881155759 -0.9845755083 -0.1723444260 -0.0301407917
0.0264740009 -0.0636568269 0.0785684843 -0.9897456491 -0.1407054330 -0.0246075445
0.0264740009 -0.0655719227 0.0739059512 -0.9968315239 -0.0783526928 -0.0137028638
0.0264740009 -0.0589804302 0.0952203882 -0.9529690153 -0.2985366876 -0.0522101719
0.0264740009 -0.0594258013 0.0832310174 -0.9579936447 -0.2825017466 -0.0494058699
0.0264740009 -0.0615635827 0.0816768397 -0.9769006818 -0.2104989837 -0.0368135260
0.0264740009 -0.0645921062 0.0574760726 -0.9937803707 -0.1096929977 -0.0191838742
0.0264740009 -0.0669971103 0.0552558187 -0.9994387210 -0.0329990517 -0.0057711036
0.0264740009 -0.0642803465 0.0681332911 -0.9925554299 -0.1199728606 -0.0209816881
0.0264740009 -0.0554174613 0.0952203882 -0.9061167850 -0.4167030957 -0.0728759350
0.0264740009 -0.0555510726 0.0816768397 -0.9086590711 -0.4112963825 -0.0719303714
0.0264740009 -0.0573770942 0.0832310174 -0.9342965777 -0.3511668603 -0.0614145024
0.0264740009 -0.0531015315 0.0881155759 -0.8674477612 -0.4900899109 -0.0857103315
0.0264740009 -0.0531015315 0.0739059512 -0.8674477612 -0.4900899109 -0.0857103315
0.0264740009 -0.0540813479 0.0785684843 -0.8850195920 -0.4585934572 -0.0802020127
0.0264740009 -0.0554174613 0.0552558187 -0.9061167850 -0.4167030957 -0.0728759350
0.0264740009 -0.0573770942 0.0574760726 -0.9342965777 -0.3511668603 -0.0614145024
0.0264740009 -0.0555510726 0.0681332911 -0.9086590711 -0.4112963825 -0.0719303714
0.0264740009 -0.0589804302 0.0374937878 -0.9529690153 -0.2985366876 -0.0522101719
0.0264740009 -0.0615635827 0.0381598639 -0.9769006818 -0.2104989837 -0.0368135260
0.0264740009 -0.0594258013 0.0472629048 -0.9579936447 -0.2825017466 -0.0494058699
0.0264740009 -0.0627215476 0.0259484677 -0.9845755083 -0.1723444260 -0.0301407917
0.0264740009 -0.0655719227 0.0259484677 -0.9968315239 -0.0783526928 -0.0137028638
0.0264740009 -0.0636568269 0.0308330262 -0.9897456491 -0.1407054330 -0.0246075445
0.0264740009 -0.0669971103 0.0374937878 -0.9994387210 -0.0329990517 -0.0057711036
0.0264740009 -0.0645921062 0.0472629048 -0.9937803707 -0.1096929977 -0.0191838742
0.0264740009 -0.0642803465 0.0381598639 -0.9925554299 -0.1199728606 -0.0209816881
0.0264740009 -0.0596484869 0.0707975957 -0.9602913592 -0.2748279011 -0.0480638144
0.0264740009 -0.0596484869 0.0585861995 -0.9602913592 -0.2748279011 -0.0480638144
0.0264740009 -0.0620980280 0.0585861995 -0.9807653334 -0.1922723536 -0.0336259262
0.0264740009 -0.0680660009 0.0173409837 -1.0000000000 0.0000000000 0.0000000000
0.0264740009 -0.0680660009 0.0124279427 -1.0000000000 0.0000000000 0.0000000000
0.0264740009 -0.0680660009 0.0031313589 -1.0000000000 0.0000000000 0.0000000000
0.0264740009 -0.0680660009 0.0353990067 -1.0000000000 0.0000000000 0.0000000000
0.0264740009 -0.0680660009 0.0326777372 -1.0000000000 0.0000000000 0.0000000000
0.0264740009 -0.0680660009 0.0224873742 -1.0000000000 0.0000000000 0.0000000000
0.0264740009 -0.0680660009 0.0069227924 -1.0000000000 0.0000000000 0.0000000000
0.0264740009 -0.0680660009 -0.0045655628 -1.0000000000 0.0000000000 0.0000000000
0.0264740009 -0.0680660009 0.0089438256 -1.0000000000 0.0000000000 0.0000000000
0.0264740009 -0.0680660009 0.0522501001 -1.0000000000 0.0000000000 0.0000000000
0.0264740009 -0.0680660009 0.0509235942 -1.0000000000 0.0000000000 0.0000000000
0.0264740009 -0.0680660009 0.0423671159 -1.0000000000 0.0000000000 0.0000000000
0.0264740009 -0.0680660009 0.0628389358 -1.0000000000 0.0000000000 0.0000000000
0.0264740009 -0.0680660009 0.0621101858 -1.0000000000 0.0000000000 0.0000000000
0.0264740009 -0.0680660009 0.0577152562 -1.0000000000 0.0000000000 0.0000000000
0.0264740009 -0.0680660009 0.0502004907 -1.0000000000 0.0000000000 0.0000000000
0.0264740009 -0.0680660009 0.0410462565 -1.0000000000 0.0000000000 0.0000000000
0.0264740009 -0.0680660009 0.0502290044 -1.0000000000 0.0000000000 0.0000000000
0.0264740009 -0.0680660009 0.0324384598 -1.0000000000 0.0000000000 0.0000000000
0.0264740009 -0.0680660009 0.0202555772 -1.0000000000 0.0000000000 0.0000000000
0.0264740009 -0.0680660009 0.0308330887 -1.0000000000 0.0000000000 0.0000000000
0.0264740009 -0.0680660009 0.0141527023 -1.0000000000 0.0000000000 0.0000000000
0.0264740009 -0.0680660009 0.0006718276 -1.0000000000 0.0000000000 0.0000000000
0.0264740009 -0.0680660009 0.0099797981 -1.0000000000 0.0000000000 0.0000000000
0.0264740009 -0.0680660009 -0.0054765004 -1.0000000000 0.0000000000 0.0000000000
0.0264740009 -0.0680660009 0.0063990033 -1.0000000000 0.0000000000 0.0000000000
0.0264740009 -0.0680660009 0.0074066185 -1.0000000000 0.0000000000 0.0000000000
0.0264740009 -0.0680660009 0.0309868876 -1.0000000000 0.0000000000 0.0000000000
0.0264740009 -0.0680660009 0.0303606181 -1.0000000000 0.0000000000 0.0000000000
0.0264740009 -0.0680660009 0.0187754914 -1.0000000000 0.0000000000 0.0000000000
0.0217769217 -0.3571949853 -0.0189570002 0.0000000000 0.0000000000 -1.0000000000
0.0206170916 -0.3578369118 -0.0189570002 0.0000000000 0.0000000000 -1.0000000000
0.0155767967 -0.3597348584 -0.0189570002 0.0000000000 0.0000000000 -1.0000000000
0.0319817888 -0.3534088379 -0.0189570002 0.0000000000 0.0000000000 -1.0000000000
0.0327621911 -0.3534227544 -0.0189570002 0.0000000000 0.0000000000 -1.0000000000
0.0264821872 -0.3556844885 -0.0189570002 0.0000000000 0.0000000000 -1.0000000000
0.0215244646 -0.3580262745 -0.0189570002 0.0000000000 0.0000000000 -1.0000000000
0.0145439373 -0.3605522311 -0.0189570002 0.0000000000 0.0000000000 -1.0000000000
0.0205726931 -0.3581053051 -0.0189570002 0.0000000000 0.0000000000 -1.0000000000
0.0429122574 -0.3495377444 -0.0189570002 0.0000000000 0.0000000000 -1.0000000000
0.0449273531 -0.3491520182 -0.0189570002 0.0000000000 0.0000000000 -1.0000000000
0.0390472105 -0.3511968757 -0.0189570002 0.0000000000 0.0000000000 -1.0000000000
0.0512891870 -0.3467430328 -0.0189570002 0.0000000000 0.0000000000 -1.0000000000
0.0538334369 -0.3461860311 -0.0189570002 0.0000000000 0.0000000000 -1.0000000000
0.0499927260 -0.3474333480 -0.0189570002 0.0000000000 0.0000000000 -1.0000000000
0.0500679604 -0.3479711772 -0.0189570002 0.0000000000 0.0000000000 -1.0000000000
0.0436586635 -0.3501873101 -0.0189570002 0.0000000000 0.0000000000 -1.0000000000
0.0473523413 -0.3486211260 -0.0189570002 0.0000000000 0.0000000000 -1.0000000000
0.0423178041 -0.3511460186 -0.0189570002 0.0000000000 0.0000000000 -1.0000000000
0.0342739527 -0.3539786708 -0.0189570002 0.0000000000 0.0000000000 -1.0000000000
0.0392023237 -0.3520128439 -0.0189570002 0.0000000000 0.0000000000 -1.0000000000
0.0329080151 -0.3547581029 -0.0189570002 0.0000000000 0.0000000000 -1.0000000000
0.0241636402 -0.3578549777 -0.0189570002 0.0000000000 0.0000000000 -1.0000000000
0.0291641812 -0.3559657343 -0.0189570002 0.0000000000 0.0000000000 -1.0000000000
0.0177242497 -0.3598559790 -0.0189570002 0.0000000000 0.0000000000 -1.0000000000
0.0233531442 -0.3576259295 -0.0189570002 0.0000000000 0.0000000000 -1.0000000000
0.0259394703 -0.3569303796 -0.0189570002 0.0000000000 0.0000000000 -1.0000000000
0.0343052555 -0.3531773213 -0.0189570002 0.0000000000 0.0000000000 -1.0000000000
0.0364917203 -0.3526986480 -0.0189570002 0.0000000000 0.0000000000 -1.0000000000
0.0289770231 -0.3553600248 -0.0189570002 0.0000000000 0.0000000000 -1.0000000000
0.0329080151 -0.3547581029 -0.0189570002 0.0000000000 0.0000000000 1.0000000000
0.0291641812 -0.3559657343 -0.0189570002 0.0000000000 0.0000000000 1.0000000000
0.0241636402 -0.3578549777 -0.0189570002 0.0000000000 0.0000000000 1.0000000000
0.0423178041 -0.3511460186 -0.0189570002 0.0000000000 0.0000000000 1.0000000000
0.0392023237 -0.3520128439 -0.0189570002 0.0000000000 0.0000000000 1.0000000000
0.0342739527 -0.3539786708 -0.0189570002 0.0000000000 0.0000000000 1.0000000000
0.0233531442 -0.3576259295 -0.0189570002 0.0000000000 0.0000000000 1.0000000000
0.0177242497 -0.3598559790 -0.0189570002 0.0000000000 0.0000000000 1.0000000000
0.0259394703 -0.3569303796 -0.0189570002 0.0000000000 0.0000000000 1.0000000000
0.0500679604 -0.3479711772 -0.0189570002 0.0000000000 0.0000000000 1.0000000000
0.0473523413 -0.3486211260 -0.0189570002 0.0000000000 0.0000000000 1.0000000000
0.0436586635 -0.3501873101 -0.0189570002 0.0000000000 0.0000000000 1.0000000000
0.0538334369 -0.3461860311 -0.0189570002 0.0000000000 0.0000000000 1.0000000000
0.0512891870 -0.3467430328 -0.0189570002 0.0000000000 0.0000000000 1.0000000000
0.0499927260 -0.3474333480 -0.0189570002 0.0000000000 0.0000000000 1.0000000000
0.0429122574 -0.3495377444 -0.0189570002 0.0000000000 0.0000000000 1.0000000000
0.0390472105 -0.3511968757 -0.0189570002 0.0000000000 0.0000000000 1.0000000000
0.0449273531 -0.3491520182 -0.0189570002 0.0000000000 0.0000000000 1.0000000000
0.0319817888 -0.3534088379 -0.0189570002 0.0000000000 0.0000000000 1.0000000000
0.0264821872 -0.3556844885 -0.0189570002 0.0000000000 0.0000000000 1.0000000000
0.0327621911 -0.3534227544 -0.0189570002 0.0000000000 0.0000000000 1.0000000000
0.0217769217 -0.3571949853 -0.0189570002 0.0000000000 0.0000000000 1.0000000000
0.0155767967 -0.3597348584 -0.0189570002 0.0000000000 0.0000000000 1.0000000000
0.0206170916 -0.3578369118 -0.0189570002 0.0000000000 0.0000000000 1.0000000000
0.0145439373 -0.3605522311 -0.0189570002 0.0000000000 0.0000000000 1.0000000000
0.0215244646 -0.3580262745 -0.0189570002 0.0000000000 0.0000000000 1.0000000000
0.0205726931 -0.3581053051 -0.0189570002 0.0000000000 0.0000000000 1.0000000000
0.0364917203 -0.3526986480 -0.0189570002 0.0000000000 0.0000000000 1.0000000000
0.0343052555 -0.3531773213 -0.0189570002 0.0000000000 0.0000000000 1.0000000000
0.0289770231 -0.3553600248 -0.0189570002 0.0000000000 0.0000000000 1.0000000000
0.0195507030 -0.3387140036 -0.0169532815 0.0000000000 -1.0000000000 0.0000000000
0.0166814550 -0.3387140036 -0.0167028167 0.0000000000 -1.0000000000 0.0000000000
0.0108063281 -0.3387140036 -0.0169532815 0.0000000000 -1.0000000000 0.0000000000
0.0310276951 -0.3387140036 -0.0163612737 0.0000000000 -1.0000000000 0.0000000000
0.0296613865 -0.3387140036 -0.0158603440 0.0000000000 -1.0000000000 0.0000000000
0.0231031053 -0.3387140036 -0.0163271194 0.0000000000 -1.0000000000 0.0000000000
0.0138122070 -0.3387140036 -0.0158603440 0.0000000000 -1.0000000000 0.0000000000
0.0064341406 -0.3387140036 -0.0163612737 0.0000000000 -1.0000000000 0.0000000000
0.0147686230 -0.3387140036 -0.0163271194 0.0000000000 -1.0000000000 0.0000000000
0.0419581637 -0.3387140036 -0.0154504925 0.0000000000 -1.0000000000 0.0000000000
0.0415482711 -0.3387140036 -0.0147901761 0.0000000000 -1.0000000000 0.0000000000
0.0359464059 -0.3387140036 -0.0153366448 0.0000000000 -1.0000000000 0.0000000000
0.0490629683 -0.3387140036 -0.0144941722 0.0000000000 -1.0000000000 0.0000000000
0.0490629683 -0.3387140036 -0.0137655472 0.0000000000 -1.0000000000 0.0000000000
0.0460570894 -0.3387140036 -0.0142550921 0.0000000000 -1.0000000000 0.0000000000
0.0419581637 -0.3387140036 -0.0134012347 0.0000000000 -1.0000000000 0.0000000000
0.0359464059 -0.3387140036 -0.0140160120 0.0000000000 -1.0000000000 0.0000000000
0.0415482711 -0.3387140036 -0.0140957054 0.0000000000 -1.0000000000 0.0000000000
0.0310276951 -0.3387140036 -0.0134012347 0.0000000000 -1.0000000000 0.0000000000
0.0231031053 -0.3387140036 -0.0140957054 0.0000000000 -1.0000000000 0.0000000000
0.0296613865 -0.3387140036 -0.0140160120 0.0000000000 -1.0000000000 0.0000000000
0.0195507030 -0.3387140036 -0.0137655472 0.0000000000 -1.0000000000 0.0000000000
0.0108063281 -0.3387140036 -0.0144941722 0.0000000000 -1.0000000000 0.0000000000
0.0166814550 -0.3387140036 -0.0142550921 0.0000000000 -1.0000000000 0.0000000000
0.0064341406 -0.3387140036 -0.0154504925 0.0000000000 -1.0000000000 0.0000000000
0.0138122070 -0.3387140036 -0.0153366448 0.0000000000 -1.0000000000 0.0000000000
0.0147686230 -0.3387140036 -0.0147901761 0.0000000000 -1.0000000000 0.0000000000
0.0289782322 -0.3387140036 -0.0152797210 0.0000000000 -1.0000000000 0.0000000000
0.0289782322 -0.3387140036 -0.0146535589 0.0000000000 -1.0000000000 0.0000000000
0.0214635350 -0.3387140036 -0.0152797210 0.0000000000 -1.0000000000 0.0000000000
0.0195507030 -0.3387140036 -0.0137655472 0.0000000000 1.0000000000 0.0000000000
0.0166814550 -0.3387140036 -0.0142550921 0.0000000000 1.0000000000 0.0000000000
0.0108063281 -0.3387140036 -0.0144941722 0.0000000000 1.0000000000 0.0000000000
0.0310276951 -0.3387140036 -0.0134012347 0.0000000000 1.0000000000 0.0000000000
0.0296613865 -0.3387140036 -0.0140160120 0.0000000000 1.0000000000 0.0000000000
0.0231031053 -0.3387140036 -0.0140957054 0.0000000000 1.0000000000 0.0000000000
0.0138122070 -0.3387140036 -0.0153366448 0.0000000000 1.0000000000 0.0000000000
0.0064341406 -0.3387140036 -0.0154504925 0.0000000000 1.0000000000 0.0000000000
0.0147686230 -0.3387140036 -0.0147901761 0.0000000000 1.0000000000 0.0000000000
0.0419581637 -0.3387140036 -0.0134012347 0.0000000000 1.0000000000 0.0000000000
0.0415482711 -0.3387140036 -0.0140957054 0.0000000000 1.0000000000 0.0000000000
0.0359464059 -0.3387140036 -0.0140160120 0.0000000000 1.0000000000 0.0000000000
0.0490629683 -0.3387140036 -0.0137655472 0.0000000000 1.0000000000 0.0000000000
0.0490629683 -0.3387140036 -0.0144941722 0.0000000000 1.0000000000 0.0000000000
0.0460570894 -0.3387140036 -0.0142550921 0.0000000000 1.0000000000 0.0000000000
0.0419581637 -0.3387140036 -0.0154504925 0.0000000000 1.0000000000 0.0000000000
0.0359464059 -0.3387140036 -0.0153366448 0.0000000000 1.0000000000 0.0000000000
0.0415482711 -0.3387140036 -0.0147901761 0.0000000000 1.0000000000 0.0000000000
0.0310276951 -0.3387140036 -0.0163612737 0.0000000000 1.0000000000 0.0000000000
0.0231031053 -0.3387140036 -0.0163271194 0.0000000000 1.0000000000 0.0000000000
0.0296613865 -0.3387140036 -0.0158603440 0.0000000000 1.0000000000 0.0000000000
0.0195507030 -0.3387140036 -0.0169532815 0.0000000000 1.0000000000 0.0000000000
0.0108063281 -0.3387140036 -0.0169532815 0.0000000000 1.0000000000 0.0000000000
0.0166814550 -0.3387140036 -0.0167028167 0.0000000000 1.0000000000 0.0000000000
0.0064341406 -0.3387140036 -0.0163612737 0.0000000000 1.0000000000 0.0000000000
0.0138122070 -0.3387140036 -0.0158603440 0.0000000000 1.0000000000 0.0000000000
0.0147686230 -0.3387140036 -0.0163271194 0.0000000000 1.0000000000 0.0000000000
0.0289782322 -0.3387140036 -0.0146535589 0.0000000000 1.0000000000 0.0000000000
0.0289782322 -0.3387140036 -0.0152797210 0.0000000000 1.0000000000 0.0000000000
0.0214635350 -0.3387140036 -0.0152797210 0.0000000000 1.0000000000 0.0000000000
0.0490629683 -0.3445206438 -0.0189570002 0.0000000000 0.0000000000 -1.0000000000
0.0460570894 -0.3435044818 -0.0189570002 0.0000000000 0.0000000000 -1.0000000000
0.0490629683 -0.3414237690 -0.0189570002 0.0000000000 0.0000000000 -1.0000000000
0.0419581637 -0.3485852920 -0.0189570002 0.0000000000 0.0000000000 -1.0000000000
0.0359464059 -0.3481014053 -0.0189570002 0.0000000000 0.0000000000 -1.0000000000
0.0415482711 -0.3457787492 -0.0189570002 0.0000000000 0.0000000000 -1.0000000000
0.0359464059 -0.3424883197 -0.0189570002 0.0000000000 0.0000000000 -1.0000000000
0.0419581637 -0.3398753316 -0.0189570002 0.0000000000 0.0000000000 -1.0000000000
0.0415482711 -0.3428270404 -0.0189570002 0.0000000000 0.0000000000 -1.0000000000
0.0310276951 -0.3524563855 -0.0189570002 0.0000000000 0.0000000000 -1.0000000000
0.0231031053 -0.3523112195 -0.0189570002 0.0000000000 0.0000000000 -1.0000000000
0.0296613865 -0.3503272841 -0.0189570002 0.0000000000 0.0000000000 -1.0000000000
0.0195507030 -0.3549725963 -0.0189570002 0.0000000000 0.0000000000 -1.0000000000
0.0108063281 -0.3549725963 -0.0189570002 0.0000000000 0.0000000000 -1.0000000000
0.0166814550 -0.3539080456 -0.0189570002 0.0000000000 0.0000000000 -1.0000000000
0.0064341406 -0.3524563855 -0.0189570002 0.0000000000 0.0000000000 -1.0000000000
0.0138122070 -0.3503272841 -0.0189570002 0.0000000000 0.0000000000 -1.0000000000
0.0147686230 -0.3523112195 -0.0189570002 0.0000000000 0.0000000000 -1.0000000000
0.0064341406 -0.3485852920 -0.0189570002 0.0000000000 0.0000000000 -1.0000000000
0.0147686230 -0.3457787492 -0.0189570002 0.0000000000 0.0000000000 -1.0000000000
0.0138122070 -0.3481014053 -0.0189570002 0.0000000000 0.0000000000 -1.0000000000
0.0108063281 -0.3445206438 -0.0189570002 0.0000000000 0.0000000000 -1.0000000000
0.0195507030 -0.3414237690 -0.0189570002 0.0000000000 0.0000000000 -1.0000000000
0.0166814550 -0.3435044818 -0.0189570002 0.0000000000 0.0000000000 -1.0000000000
0.0310276951 -0.3398753316 -0.0189570002 0.0000000000 0.0000000000 -1.0000000000
0.0296613865 -0.3424883197 -0.0189570002 0.0000000000 0.0000000000 -1.0000000000
0.0231031053 -0.3428270404 -0.0189570002 0.0000000000 0.0000000000 -1.0000000000
0.0289782322 -0.3478594620 -0.0189570002 0.0000000000 0.0000000000 -1.0000000000
0.0214635350 -0.3478594620 -0.0189570002 0.0000000000 0.0000000000 -1.0000000000
0.0289782322 -0.3451980852 -0.0189570002 0.0000000000 0.0000000000 -1.0000000000
0.0108063281 -0.3445206438 -0.0189570002 0.0000000000 0.0000000000 1.0000000000
0.0166814550 -0.3435044818 -0.0189570002 0.0000000000 0.0000000000 1.0000000000
0.0195507030 -0.3414237690 -0.0189570002 0.0000000000 0.0000000000 1.0000000000
0.0064341406 -0.3485852920 -0.0189570002 0.0000000000 0.0000000000 1.0000000000
0.0138122070 -0.3481014053 -0.0189570002 0.0000000000 0.0000000000 1.0000000000
0.0147686230 -0.3457787492 -0.0189570002 0.0000000000 0.0000000000 1.0000000000
0.0296613865 -0.3424883197 -0.0189570002 0.0000000000 0.0000000000 1.0000000000
0.0310276951 -0.3398753316 -0.0189570002 0.0000000000 0.0000000000 1.0000000000
0.0231031053 -0.3428270404 -0.0189570002 0.0000000000 0.0000000000 1.0000000000
0.0064341406 -0.3524563855 -0.0189570002 0.0000000000 0.0000000000 1.0000000000
0.0147686230 -0.3523112195 -0.0189570002 0.0000000000 0.0000000000 1.0000000000
0.0138122070 -0.3503272841 -0.0189570002 0.0000000000 0.0000000000 1.0000000000
0.0108063281 -0.3549725963 -0.0189570002 0.0000000000 0.0000000000 1.0000000000
0.0195507030 -0.3549725963 -0.0189570002 0.0000000000 0.0000000000 1.0000000000
0.0166814550 -0.3539080456 -0.0189570002 0.0000000000 0.0000000000 1.0000000000
0.0310276951 -0.3524563855 -0.0189570002 0.0000000000 0.0000000000 1.0000000000
0.0296613865 -0.3503272841 -0.0189570002 0.0000000000 0.0000000000 1.0000000000
0.0231031053 -0.3523112195 -0.0189570002 0.0000000000 0.0000000000 1.0000000000
0.0419581637 -0.3485852920 -0.0189570002 0.0000000000 0.0000000000 1.0000000000
0.0415482711 -0.3457787492 -0.0189570002 0.0000000000 0.0000000000 1.0000000000
0.0359464059 -0.3481014053 -0.0189570002 0.0000000000 0.0000000000 1.0000000000
0.0490629683 -0.3445206438 -0.0189570002 0.0000000000 0.0000000000 1.0000000000
0.0490629683 -0.3414237690 -0.0189570002 0.0000000000 0.0000000000 1.0000000000
0.0460570894 -0.3435044818 -0.0189570002 0.0000000000 0.0000000000 1.0000000000
0.0419581637 -0.3398753316 -0.0189570002 0.0000000000 0.0000000000 1.0000000000
0.0359464059 -0.3424883197 -0.0189570002 0.0000000000 0.0000000000 1.0000000000
0.0415482711 -0.3428270404 -0.0189570002 0.0000000000 0.0000000000 1.0000000000
0.0214635350 -0.3478594620 -0.0189570002 0.0000000000 0.0000000000 1.0000000000
0.0289782322 -0.3478594620 -0.0189570002 0.0000000000 0.0000000000 1.0000000000
0.0289782322 -0.3451980852 -0.0189570002 0.0000000000 0.0000000000 1.0000000000
0.0408943275 -0.2370523626 -0.0131280003 0.0000000000 0.0000000000 -1.0000000000
0.0421245013 -0.2359694158 -0.0131280003 0.0000000000 0.0000000000 -1.0000000000
0.0419874524 -0.2374074890 -0.0131280003 0.0000000000 0.0000000000 -1.0000000000
0.0415194916 -0.2337511420 -0.0131280003 0.0000000000 0.0000000000 -1.0000000000
0.0434332768 -0.2314076851 -0.0131280003 0.0000000000 0.0000000000 -1.0000000000
0.0426289759 -0.2339094108 -0.0131280003 0.0000000000 0.0000000000 -1.0000000000
0.0454145658 -0.2320513516 -0.0131280003 0.0000000000 0.0000000000 -1.0000000000
0.0445939056 -0.2347499349 -0.0131280003 0.0000000000 0.0000000000 -1.0000000000
0.0436708607 -0.2342478906 -0.0131280003 0.0000000000 0.0000000000 -1.0000000000
0.0433221479 -0.2289455152 -0.0131280003 0.0000000000 0.0000000000 -1.0000000000
0.0456709585 -0.2257999156 -0.0131280003 0.0000000000 0.0000000000 -1.0000000000
0.0444698042 -0.2286444497 -0.0131280003 0.0000000000 0.0000000000 -1.0000000000
0.0457614996 -0.2240771702 -0.0131280003 0.0000000000 0.0000000000 -1.0000000000
0.0482967496 -0.2205877951 -0.0131280003 0.0000000000 0.0000000000 -1.0000000000
0.0469691402 -0.2230542937 -0.0131280003 0.0000000000 0.0000000000 -1.0000000000
0.0504525386 -0.2191316477 -0.0131280003 0.0000000000 0.0000000000 -1.0000000000
0.0490649448 -0.2223199573 -0.0131280003 0.0000000000 0.0000000000 -1.0000000000
0.0480873687 -0.2224741049 -0.0131280003 0.0000000000 0.0000000000 -1.0000000000
0.0518189449 -0.2195755556 -0.0131280003 0.0000000000 0.0000000000 -1.0000000000
0.0503931792 -0.2232231995 -0.0131280003 0.0000000000 0.0000000000 -1.0000000000
0.0498506284 -0.2225752044 -0.0131280003 0.0000000000 0.0000000000 -1.0000000000
0.0519860464 -0.2217863465 -0.0131280003 0.0000000000 0.0000000000 -1.0000000000
0.0505439213 -0.2256308480 -0.0131280003 0.0000000000 0.0000000000 -1.0000000000
0.0506413569 -0.2242472963 -0.0131280003 0.0000000000 0.0000000000 -1.0000000000
0.0477629681 -0.2303882160 -0.0131280003 0.0000000000 0.0000000000 -1.0000000000
0.0472367767 -0.2295433633 -0.0131280003 0.0000000000 0.0000000000 -1.0000000000
0.0490186537 -0.2268874900 -0.0131280003 0.0000000000 0.0000000000 -1.0000000000
0.0455389545 -0.2286548336 -0.0131280003 0.0000000000 0.0000000000 -1.0000000000
0.0477176850 -0.2256561519 -0.0131280003 0.0000000000 0.0000000000 -1.0000000000
0.0464783588 -0.2289600203 -0.0131280003 0.0000000000 0.0000000000 -1.0000000000
0.0542043902 -0.2149590487 -0.0131280003 0.0000000000 0.0000000000 -1.0000000000
0.0545630718 -0.2121776090 -0.0131280003 0.0000000000 0.0000000000 -1.0000000000
0.0552975151 -0.2110009240 -0.0131280003 0.0000000000 0.0000000000 -1.0000000000
0.0527696636 -0.2166495709 -0.0131280003 0.0000000000 0.0000000000 -1.0000000000
0.0529404644 -0.2130657538 -0.0131280003 0.0000000000 0.0000000000 -1.0000000000
0.0537603081 -0.2128603367 -0.0131280003 0.0000000000 0.0000000000 -1.0000000000
0.0549217534 -0.2058916528 -0.0131280003 0.0000000000 0.0000000000 -1.0000000000
0.0558440776 -0.2055173452 -0.0131280003 0.0000000000 0.0000000000 -1.0000000000
0.0548021929 -0.2090877492 -0.0131280003 0.0000000000 0.0000000000 -1.0000000000
0.0514032574 -0.2162056629 -0.0131280003 0.0000000000 0.0000000000 -1.0000000000
0.0514544976 -0.2121112421 -0.0131280003 0.0000000000 0.0000000000 -1.0000000000
0.0521547808 -0.2128105068 -0.0131280003 0.0000000000 0.0000000000 -1.0000000000
0.0505150934 -0.2137604973 -0.0131280003 0.0000000000 0.0000000000 -1.0000000000
0.0505150934 -0.2094472463 -0.0131280003 0.0000000000 0.0000000000 -1.0000000000
0.0508908551 -0.2109846064 -0.0131280003 0.0000000000 0.0000000000 -1.0000000000
0.0514032574 -0.2040746445 -0.0131280003 0.0000000000 0.0000000000 -1.0000000000
0.0521547808 -0.2049927393 -0.0131280003 0.0000000000 0.0000000000 -1.0000000000
0.0514544976 -0.2080001748 -0.0131280003 0.0000000000 0.0000000000 -1.0000000000
0.0527696636 -0.1991269886 -0.0131280003 0.0000000000 0.0000000000 -1.0000000000
0.0537603081 -0.1996510055 -0.0131280003 0.0000000000 0.0000000000 -1.0000000000
0.0529404644 -0.2021478372 -0.0131280003 0.0000000000 0.0000000000 -1.0000000000
0.0542043902 -0.1960885755 -0.0131280003 0.0000000000 0.0000000000 -1.0000000000
0.0552975151 -0.1964437019 -0.0131280003 0.0000000000 0.0000000000 -1.0000000000
0.0545630718 -0.1976877814 -0.0131280003 0.0000000000 0.0000000000 -1.0000000000
0.0558440776 -0.2001257815 -0.0131280003 0.0000000000 0.0000000000 -1.0000000000
