-0.0321249999 0.2085468713 0.1350519434
-0.0321249999 0.2134178397 0.1362890517
-0.0321249999 0.2345253695 0.1324231923
-0.0321249999 0.1760737486 0.1417978806
-0.0321249999 0.1760737486 0.1445658794
-0.0321249999 0.1923103100 0.1406739110
-0.0321249999 0.2085468713 0.1412799405
-0.0321249999 0.2345253695 0.1358831907
-0.0321249999 0.2134178397 0.1385380507
-0.0309571872 0.2345253695 0.1289631939
-0.0311323591 0.2134178397 0.1333480531
-0.0318914374 0.2085468713 0.1343599437
-0.0297893744 0.2345253695 0.1289631939
-0.0297893744 0.2085468713 0.1343599437
-0.0303732808 0.2134178397 0.1333480531
-0.0309571872 0.1760737486 0.1411058810
-0.0318914374 0.1760737486 0.1411058810
-0.0311323591 0.1923103100 0.1377329123
-0.0321249999 0.1695791241 0.1528350636
-0.0321249999 0.1647081557 0.1515979553
-0.0321249999 0.1436006259 0.1554638147
-0.0321249999 0.2020522468 0.1460891264
-0.0321249999 0.2020522468 0.1433211276
-0.0321249999 0.1858156854 0.1472130960
-0.0321249999 0.1695791241 0.1466070665
-0.0321249999 0.1436006259 0.1520038163
-0.0321249999 0.1647081557 0.1493489563
-0.0318914374 0.2410199940 0.1520471238
-0.0311323591 0.2410199940 0.1515591545
-0.0309571872 0.2410199940 0.1494446211
-0.0318914374 0.2410199940 0.1553002521
-0.0309571872 0.2410199940 0.1553002521
-0.0311323591 0.2410199940 0.1536736879
-0.0297893744 0.2410199940 0.1520471238
-0.0297893744 0.2410199940 0.1494446211
-0.0303732808 0.2410199940 0.1515591545
-0.0318914374 0.2085468713 0.1659499435
-0.0311323591 0.2134178397 0.1649380529
-0.0309571872 0.2345253695 0.1605531937
-0.0318914374 0.1760737486 0.1726958808
-0.0309571872 0.1760737486 0.1726958808
-0.0311323591 0.1923103100 0.1693229121
-0.0297893744 0.2085468713 0.1659499435
-0.0297893744 0.2345253695 0.1605531937
-0.0303732808 0.2134178397 0.1649380529
-0.0295558119 0.1436006259 0.1690318072
-0.0293806400 0.1647081557 0.1646469480
-0.0286215617 0.1695791241 0.1636350574
-0.0307236246 0.1436006259 0.1690318072
-0.0307236246 0.1695791241 0.1636350574
-0.0301397183 0.1647081557 0.1646469480
-0.0295558119 0.2020522468 0.1568891201
-0.0286215617 0.2020522468 0.1568891201
-0.0293806400 0.1858156854 0.1602620888
-0.0286215617 0.1371060014 0.1672222465
-0.0293806400 0.1371060014 0.1676960588
-0.0295558119 0.1371060014 0.1697492450
-0.0286215617 0.1371060014 0.1640634984
-0.0295558119 0.1371060014 0.1640634984
-0.0293806400 0.1371060014 0.1656428725
-0.0307236246 0.1371060014 0.1672222465
-0.0307236246 0.1371060014 0.1697492450
-0.0301397183 0.1371060014 0.1676960588
-0.0318914374 0.1371060014 0.1634317487
-0.0311323591 0.1371060014 0.1629579365
-0.0309571872 0.1371060014 0.1609047502
-0.0318914374 0.1371060014 0.1665904969
-0.0309571872 0.1371060014 0.1665904969
-0.0311323591 0.1371060014 0.1650111228
-0.0297893744 0.1371060014 0.1634317487
-0.0297893744 0.1371060014 0.1609047502
-0.0303732808 0.1371060014 0.1629579365
-0.0332149989 0.1371060014 0.1485090051
-0.0329424992 0.1371060014 0.1462600031
-0.0332149989 0.1371060014 0.1457410026
-0.0326699994 0.1371060014 0.1485090051
-0.0322339998 0.1371060014 0.1457410026
-0.0325882495 0.1371060014 0.1462600031
-0.0322339998 0.1371060014 0.1422809996
-0.0326699994 0.1371060014 0.1422809996
-0.0325882495 0.1371060014 0.1440110011
-0.0337599984 0.1371060014 0.1415889990
-0.0334057487 0.1371060014 0.1410699985
-0.0333239988 0.1371060014 0.1388209965
-0.0337599984 0.1371060014 0.1450490020
-0.0333239988 0.1371060014 0.1450490020
-0.0334057487 0.1371060014 0.1433190005
-0.0327789993 0.1371060014 0.1415889990
-0.0327789993 0.1371060014 0.1388209965
-0.0330514990 0.1371060014 0.1410699985
-0.0338689983 0.1357511887 0.1589420643
-0.0338689983 0.1313480476 0.1663805158
-0.0338689983 0.1303319382 0.1702263113
-0.0338689983 0.1357511887 0.1554820659
-0.0338689983 0.1303319382 0.1639983142
-0.0338689983 0.1313480476 0.1641315168
-0.0338689983 0.1235578749 0.1781036230
-0.0338689983 0.1235578749 0.1808716217
-0.0338689983 0.1269449065 0.1732999675
-0.0338689983 0.0914539993 0.0145239979
-0.0338689983 0.0890586865 -0.0109018148
-0.0338689983 0.0818664990 -0.0659095012
-0.0338689983 0.1022430616 0.0943768085
-0.0338689983 0.1012868113 0.0778255579
-0.0338689983 0.0960715770 0.0410025121
-0.0338689983 0.0893024360 -0.0227163159
-0.0338689983 0.0806711861 -0.0865985644
-0.0338689983 0.0882817331 -0.0243497059
-0.0317668112 0.0770789981 -0.1917825695
-0.0320821392 0.0770789981 -0.1778321466
-0.0334485609 0.0770789981 -0.1746128183
-0.0296646240 0.0770789981 -0.1917825695
-0.0296646240 0.0770789981 -0.1746128183
-0.0307157176 0.0770789981 -0.1778321466
-0.0317668112 0.0770789981 -0.1531506293
-0.0334485609 0.0770789981 -0.1531506293
-0.0320821392 0.0770789981 -0.1638817238
-0.0016832500 0.0730043116 -0.2408099398
-0.0071993124 0.0741907646 -0.2422985490
-0.0084722498 0.0793320609 -0.2487491891
-0.0016832500 0.0650946251 -0.2308858782
-0.0084722498 0.0650946251 -0.2308858782
-0.0071993124 0.0690494684 -0.2358479090
-0.0169584997 0.0730043116 -0.2408099398
-0.0169584997 0.0793320609 -0.2487491891
-0.0127153747 0.0741907646 -0.2422985490
-0.0271419995 0.0727646241 -0.2373937527
-0.0271419995 0.0731720927 -0.2277797537
-0.0271419995 0.0781336233 -0.2316682534
-0.0271419995 0.0648549376 -0.2274696911
-0.0271419995 0.0638961876 -0.2138049426
-0.0271419995 0.0680307965 -0.2213291137
-0.0271419995 0.0706074366 -0.2066480685
-0.0271419995 0.0769351858 -0.2145873178
-0.0271419995 0.0723931083 -0.2166771456
0.0017112500 0.0809139982 -0.2893508729
0.0072273127 0.0809139982 -0.2835583421
0.0085002502 0.0809139982 -0.2584573757
0.0017112500 0.0809139982 -0.3279677443
0.0085002502 0.0809139982 -0.3279677443
0.0072273127 0.0809139982 -0.3086593086
0.0169865004 0.0809139982 -0.2893508729
0.0169865004 0.0809139982 -0.2584573757
0.0127433753 0.0809139982 -0.2835583421
0.0317793137 0.0809139982 -0.3356911186
0.0248968291 0.0809139982 -0.3414836493
0.0233085634 0.0809139982 -0.3665846158
0.0317793137 0.0809139982 -0.2970742472
0.0233085634 0.0809139982 -0.2970742472
0.0248968291 0.0809139982 -0.3163826829
0.0127201255 0.0809139982 -0.3356911186
0.0127201255 0.0809139982 -0.3665846158
0.0180143444 0.0809139982 -0.3414836493
0.0338970013 0.1046430613 0.0197126213
0.0338970013 0.1062609520 -0.0749308444
0.0338970013 0.1132718115 -0.0111808758
0.0338970013 0.0938571235 -0.1193723772
0.0338970013 0.0938571235 -0.2615338732
0.0338970013 0.0992500924 -0.1653360934
0.0338970013 0.1046430613 -0.3001507446
0.0338970013 0.1132718115 -0.1888827458
0.0338970013 0.1062609520 -0.1904370598
0.0338970013 0.1167838117 0.0081283117
0.0338970013 0.1211869528 0.0071332027
0.0338970013 0.1222030623 0.1162585591
0.0338970013 0.1167838117 -0.1695735583
0.0338970013 0.1222030623 -0.2036048069
0.0338970013 0.1211869528 -0.1083730128
0.0338970013 0.1289771255 -0.0684419977
0.0338970013 0.1289771255 0.0737194982
0.0338970013 0.1255900939 -0.0205171868
0.0321841885 0.1695791241 -0.2986529334
0.0324411104 0.1647081557 -0.2101110440
0.0335544387 0.1436006259 -0.2932561836
0.0304713757 0.2020522468 -0.1303388730
0.0304713757 0.2020522468 0.0097091252
0.0313277821 0.1858156854 -0.1007069047
0.0321841885 0.1695791241 0.0164550624
0.0335544387 0.1436006259 -0.1181961859
0.0324411104 0.1647081557 -0.0963220455
0.0036832501 0.1845425675 -0.5019789934
0.0103330003 0.1742782074 -0.5019789934
0.0109127504 0.1717843162 -0.5019789934
0.0052348126 0.1847460056 -0.5019789934
0.0137055629 0.1721505048 -0.5019789934
0.0113415160 0.1744104421 -0.5019789934
0.0227424383 0.1562026907 -0.5019789934
0.0215011883 0.1560399402 -0.5019789934
0.0172154850 0.1640443630 -0.5019789934
-0.0046406877 0.1880983189 -0.5062614940
-0.0036321720 0.1879660841 -0.5056191189
-0.0033994376 0.1879355684 -0.5028354935
-0.0046406877 0.1880983189 -0.5105439946
-0.0033994376 0.1879355684 -0.5105439946
-0.0036321720 0.1879660841 -0.5084027443
-0.0018478751 0.1877321303 -0.5062614940
-0.0018478751 0.1877321303 -0.5028354935
-0.0026236564 0.1878338493 -0.5056191189
-0.0052401877 0.1882589431 -0.5114004947
-0.0061800470 0.1886487373 -0.5120428698
-0.0063969376 0.1887386898 -0.5148264952
-0.0052401877 0.1882589431 -0.5071179941
-0.0063969376 0.1887386898 -0.5071179941
-0.0061800470 0.1886487373 -0.5092592444
-0.0078428750 0.1893383730 -0.5114004947
-0.0078428750 0.1893383730 -0.5148264952
-0.0071199063 0.1890385314 -0.5120428698
0.0036535624 0.1922411248 -0.5156829953
0.0010693281 0.1917905919 -0.5156829953
-0.0021356875 0.1914791241 -0.5156829953
0.0078926249 0.1925783101 -0.5156829953
0.0054946249 0.1920860577 -0.5156829953
0.0038247187 0.1920097624 -0.5156829953
-0.0017419375 0.1911335569 -0.5156829953
-0.0051331874 0.1908638086 -0.5156829953
-0.0008790468 0.1913906368 -0.5156829953
-0.0119398126 0.1984011894 -0.5028354935
-0.0120488907 0.1985433612 -0.5056191189
-0.0125215627 0.1991594387 -0.5062614940
-0.0112126248 0.1974533778 -0.5028354935
-0.0112126248 0.1974533778 -0.5062614940
-0.0115762187 0.1979272836 -0.5056191189
-0.0119398126 0.1984011894 -0.5105439946
-0.0125215627 0.1991594387 -0.5105439946
-0.0120488907 0.1985433612 -0.5084027443
-0.0136728126 0.2017765595 -0.5028354935
-0.0137413907 0.2019420748 -0.5056191189
-0.0140385625 0.2026593080 -0.5062614940
-0.0132156252 0.2006731238 -0.5028354935
-0.0132156252 0.2006731238 -0.5062614940
-0.0134442189 0.2012248416 -0.5056191189
-0.0136728126 0.2017765595 -0.5105439946
-0.0140385625 0.2026593080 -0.5105439946
-0.0137413907 0.2019420748 -0.5084027443
-0.0035391251 0.1924948106 -0.5114004947
-0.0027692813 0.1923934522 -0.5120428698
-0.0025916251 0.1923700618 -0.5148264952
-0.0035391251 0.1924948106 -0.5071179941
-0.0025916251 0.1923700618 -0.5071179941
-0.0027692813 0.1923934522 -0.5092592444
-0.0014072500 0.1922141258 -0.5114004947
-0.0014072500 0.1922141258 -0.5148264952
-0.0019994376 0.1922920938 -0.5120428698
-0.0039966876 0.1926174350 -0.5062614940
-0.0047139220 0.1929146061 -0.5056191189
-0.0048794376 0.1929831840 -0.5028354935
-0.0039966876 0.1926174350 -0.5105439946
-0.0048794376 0.1929831840 -0.5105439946
-0.0047139220 0.1929146061 -0.5084027443
-0.0059828750 0.1934403703 -0.5062614940
-0.0059828750 0.1934403703 -0.5028354935
-0.0054311563 0.1932117771 -0.5056191189
-0.0074965625 0.1941344319 -0.5062614940
-0.0081126405 0.1946071058 -0.5056191189
-0.0082548124 0.1947161844 -0.5028354935
-0.0074965625 0.1941344319 -0.5105439946
-0.0082548124 0.1947161844 -0.5105439946
-0.0081126405 0.1946071058 -0.5084027443
-0.0092026247 0.1954433750 -0.5062614940
-0.0092026247 0.1954433750 -0.5028354935
-0.0087287185 0.1950797797 -0.5056191189
-0.0144730624 0.2054856243 -0.5028354935
-0.0144964530 0.2056632808 -0.5056191189
-0.0145978124 0.2064331258 -0.5062614940
-0.0143171250 0.2043012474 -0.5028354935
-0.0143171250 0.2043012474 -0.5062614940
-0.0143950937 0.2048934358 -0.5056191189
-0.0144730624 0.2054856243 -0.5105439946
-0.0145978124 0.2064331258 -0.5105439946
-0.0144964530 0.2056632808 -0.5084027443
-0.0144730624 0.2078543780 -0.5148264952
-0.0144964530 0.2076767215 -0.5120428698
-0.0145978124 0.2069068765 -0.5114004947
-0.0143171250 0.2090387549 -0.5148264952
-0.0143171250 0.2090387549 -0.5114004947
-0.0143950937 0.2084465665 -0.5120428698
-0.0144730624 0.2078543780 -0.5071179941
-0.0145978124 0.2069068765 -0.5071179941
-0.0144964530 0.2076767215 -0.5092592444
-0.0136728126 0.2115634428 -0.5148264952
-0.0137413907 0.2113979275 -0.5120428698
-0.0140385625 0.2106806943 -0.5114004947
-0.0132156252 0.2126668785 -0.5148264952
-0.0132156252 0.2126668785 -0.5114004947
-0.0134442189 0.2121151607 -0.5120428698
-0.0136728126 0.2115634428 -0.5071179941
-0.0140385625 0.2106806943 -0.5071179941
-0.0137413907 0.2113979275 -0.5092592444
-0.0114584373 0.2160286242 -0.5156829953
-0.0126209217 0.2160162174 -0.5156829953
-0.0124416872 0.2165966230 -0.5156829953
-0.0121856250 0.2150808126 -0.5156829953
-0.0137506251 0.2148905620 -0.5156829953
-0.0130935937 0.2154001398 -0.5156829953
-0.0149796874 0.2156005604 -0.5156829953
-0.0143979372 0.2163588097 -0.5156829953
-0.0138924842 0.2158616388 -0.5156829953
-0.0127381246 0.2189845629 -0.5156829953
-0.0135079684 0.2183279525 -0.5156829953
-0.0143031246 0.2187943123 -0.5156829953
-0.0117346871 0.2179804994 -0.5156829953
-0.0124969371 0.2169869980 -0.5156829953
-0.0128557340 0.2176753113 -0.5156829953
-0.0144531872 0.2167491848 -0.5156829953
-0.0152559372 0.2175524356 -0.5156829953
-0.0141272965 0.2175207327 -0.5156829953
-0.0080131874 0.2223229408 -0.5156829953
-0.0090921717 0.2218194874 -0.5156829953
-0.0104569373 0.2221786901 -0.5156829953
-0.0062000625 0.2215504413 -0.5156829953
-0.0071933124 0.2207881911 -0.5156829953
-0.0079136405 0.2213173627 -0.5156829953
-0.0102479998 0.2206078777 -0.5156829953
-0.0116984997 0.2212258773 -0.5156829953
-0.0098991873 0.2212001591 -0.5156829953
0.0204315006 0.2260460602 -0.5019789934
0.0202681254 0.2235955775 -0.5019789934
0.0179635005 0.2168318117 -0.5019789934
0.0241152504 0.2361182487 -0.5019789934
0.0245942501 0.2349617509 -0.5019789934
0.0226625628 0.2301425000 -0.5019789934
0.0215092499 0.2234439403 -0.5019789934
0.0185622501 0.2153861895 -0.5019789934
0.0206573126 0.2226559231 -0.5019789934
0.0145318126 0.2189951250 -0.5028354935
0.0143888907 0.2191814065 -0.5056191189
0.0137695624 0.2199886264 -0.5062614940
0.0154846255 0.2177532483 -0.5028354935
0.0154846255 0.2177532483 -0.5062614940
0.0150082191 0.2183741867 -0.5056191189
0.0145318126 0.2189951250 -0.5105439946
0.0137695624 0.2199886264 -0.5105439946
0.0143888907 0.2191814065 -0.5084027443
0.0104849375 0.2221786901 -0.5156829953
0.0091201719 0.2218194874 -0.5156829953
0.0080411875 0.2223229408 -0.5156829953
0.0117264999 0.2212258773 -0.5156829953
0.0102759999 0.2206078777 -0.5156829953
0.0099271874 0.2212001591 -0.5156829953
0.0072213125 0.2207881911 -0.5156829953
0.0062280626 0.2215504413 -0.5156829953
0.0079416406 0.2213173627 -0.5156829953
0.0054095000 0.2226691274 -0.5156829953
0.0019623751 0.2227616587 -0.5156829953
0.0030115001 0.2231626278 -0.5156829953
0.0024120000 0.2220522519 -0.5156829953
-0.0023839999 0.2220522519 -0.5156829953
0.0000140001 0.2223606897 -0.5156829953
-0.0053814999 0.2226691274 -0.5156829953
-0.0029834999 0.2231626278 -0.5156829953
-0.0019343749 0.2227616587 -0.5156829953
0.0284160003 0.2414871193 0.0497425629
0.0284160003 0.2430052767 0.0676723279
0.0284160003 0.2433556207 0.0739813123
0.0284160003 0.2414871193 0.0462141251
0.0284160003 0.2433556207 0.0676301243
0.0284160003 0.2430052767 0.0653788433
0.0284160003 0.2456912473 0.0979285610
0.0284160003 0.2456912473 0.1007513113
0.0284160003 0.2445234340 0.0850728272
0.0318416259 0.1784093753 -0.4683161813
0.0309852195 0.1942955926 -0.3589120421
0.0318416259 0.1765408739 -0.3336649330
0.0301288131 0.2132181246 -0.4683161813
0.0287585629 0.2391966227 -0.3336649330
0.0298718912 0.2169212797 -0.3589120421
0.0287585629 0.2368609961 -0.1653508726
0.0301288131 0.2090139966 -0.1653508726
0.0298718912 0.2154031224 -0.2495079028
0.0284160003 0.2414871193 0.1245269403
0.0284160003 0.2430052767 0.1262579858
0.0284160003 0.2433556207 0.1287866905
0.0284160003 0.2414871193 0.1210669372
0.0284160003 0.2433556207 0.1225586850
0.0284160003 0.2430052767 0.1240089838
0.0284160003 0.2456912473 0.1278833728
0.0284160003 0.2456912473 0.1306513753
0.0284160003 0.2445234340 0.1274700309
0.0286495627 0.2410199940 0.1310740048
0.0294086406 0.2410199940 0.1305550050
0.0295838125 0.2410199940 0.1283060061
0.0286495627 0.2410199940 0.1345340032
0.0295838125 0.2410199940 0.1345340032
0.0294086406 0.2410199940 0.1328040040
0.0307516246 0.2410199940 0.1310740048
0.0307516246 0.2410199940 0.1283060061
0.0301677185 0.2410199940 0.1305550050
0.0284160003 0.2345253695 0.1431939369
0.0284160003 0.2134178397 0.1471049839
0.0284160003 0.2085468713 0.1460636882
0.0284160003 0.2345253695 0.1463526851
0.0284160003 0.2085468713 0.1517494349
0.0284160003 0.2134178397 0.1491581702
0.0284160003 0.1760737486 0.1553366240
0.0284160003 0.1760737486 0.1528096255
0.0284160003 0.1923103100 0.1514898431
0.0284160003 0.2424231190 0.1571620023
0.0284160003 0.2469832753 0.1615861261
0.0284160003 0.2480356190 0.1646090029
0.0284160003 0.2424231190 0.1539088739
0.0284160003 0.2480356190 0.1587533718
0.0284160003 0.2469832753 0.1594715926
0.0284160003 0.2550512441 0.1680621225
0.0284160003 0.2550512441 0.1706646252
0.0284160003 0.2515434315 0.1655222806
0.0274184997 0.2561234422 0.2488400042
0.0276346248 0.2572918618 0.2488400042
0.0276844999 0.2614691891 0.2488400042
0.0274184997 0.2497734427 0.2488400042
0.0276844999 0.2500391901 0.2488400042
0.0276346248 0.2531643622 0.2488400042
0.0280170001 0.2567213736 0.2488400042
0.0280170001 0.2618013732 0.2488400042
0.0278507500 0.2575077815 0.2488400042
0.0284160003 0.2424231190 0.1669213781
0.0284160003 0.2469832753 0.1692309708
0.0284160003 0.2480356190 0.1717658760
0.0284160003 0.2424231190 0.1636682544
0.0284160003 0.2480356190 0.1659102533
0.0284160003 0.2469832753 0.1671164404
0.0284160003 0.2550512441 0.1719658757
0.0284160003 0.2550512441 0.1745683746
0.0284160003 0.2515434315 0.1710525949
0.0286495627 0.2410199940 0.1725674402
0.0294086406 0.2410199940 0.1721244245
0.0295838125 0.2410199940 0.1702046897
0.0286495627 0.2410199940 0.1755208783
0.0295838125 0.2410199940 0.1755208783
0.0294086406 0.2410199940 0.1740441592
0.0307516246 0.2410199940 0.1725674402
0.0307516246 0.2410199940 0.1702046897
0.0301677185 0.2410199940 0.1721244245
0.0284160003 0.2345253695 0.1831738772
0.0284160003 0.2134178397 0.1871447836
0.0284160003 0.2085468713 0.1863628784
0.0284160003 0.2345253695 0.1859335629
0.0284160003 0.2085468713 0.1913303128
0.0284160003 0.2134178397 0.1889385793
0.0284160003 0.1760737486 0.1953165643
0.0284160003 0.1760737486 0.1931088157
0.0284160003 0.1923103100 0.1915296428
0.0284160003 0.2424231190 0.1972237462
0.0284160003 0.2469832753 0.2082233105
0.0284160003 0.2480356190 0.2124597477
0.0284160003 0.2424231190 0.1944643725
0.0284160003 0.2480356190 0.2074928749
0.0284160003 0.2469832753 0.2064297176
0.0284160003 0.2550512441 0.2265378768
0.0284160003 0.2550512441 0.2287453758
0.0284160003 0.2515434315 0.2188089688
0.0000805000 0.2457579356 0.2488400042
0.0002966250 0.2448068592 0.2488400042
0.0003465000 0.2460246887 0.2488400042
0.0000805000 0.2434223089 0.2488400042
0.0003465000 0.2418205608 0.2488400042
0.0002966250 0.2432887019 0.2488400042
0.0006790000 0.2421540022 0.2488400042
0.0006790000 0.2440225035 0.2488400042
0.0005127500 0.2435054388 0.2488400042
-0.0178065620 0.2410893692 0.2488400042
-0.0135940152 0.2413148384 0.2488400042
-0.0180838120 0.2413668698 0.2488400042
-0.0089309372 0.2410893692 0.2488400042
-0.0021076874 0.2413668698 0.2488400042
-0.0078248591 0.2413148384 0.2488400042
-0.0024542499 0.2417137455 0.2488400042
-0.0095547497 0.2417137455 0.2488400042
-0.0080501248 0.2415403076 0.2488400042
-0.0283879992 0.1695791241 0.1838044394
-0.0283879992 0.1647081557 0.1827017996
-0.0283879992 0.1436006259 0.1865986902
-0.0283879992 0.2020522468 0.1770585021
-0.0283879992 0.2020522468 0.1744560031
-0.0283879992 0.1858156854 0.1783169403
-0.0283879992 0.1695791241 0.1779488167
-0.0283879992 0.1436006259 0.1833455665
-0.0283879992 0.1647081557 0.1805872691
-0.0286215617 0.1695791241 0.1740450682
-0.0293806400 0.1647081557 0.1750569588
-0.0295558119 0.1436006259 0.1794418180
-0.0286215617 0.2020522468 0.1672991309
-0.0295558119 0.2020522468 0.1672991309
-0.0293806400 0.1858156854 0.1706720996
-0.0307236246 0.1695791241 0.1740450682
-0.0307236246 0.1436006259 0.1794418180
-0.0301397183 0.1647081557 0.1750569588
-0.0321249999 0.2085468713 0.1769506270
-0.0321249999 0.2134178397 0.1778584712
-0.0321249999 0.2345253695 0.1739166277
-0.0321249999 0.1760737486 0.1836965643
-0.0321249999 0.1760737486 0.1860593148
-0.0321249999 0.1923103100 0.1822433304
-0.0321249999 0.2085468713 0.1822668156
-0.0321249999 0.2345253695 0.1768700657
-0.0321249999 0.2134178397 0.1797782059
-0.0309571872 0.2345253695 0.1709631896
-0.0311323591 0.2134178397 0.1753480488
-0.0318914374 0.2085468713 0.1763599394
-0.0297893744 0.2345253695 0.1709631896
-0.0297893744 0.2085468713 0.1763599394
-0.0303732808 0.2134178397 0.1753480488
-0.0309571872 0.1760737486 0.1831058767
-0.0318914374 0.1760737486 0.1831058767
-0.0311323591 0.1923103100 0.1797329080
-0.0309571872 0.1436006259 0.1993028158
-0.0311323591 0.1647081557 0.1949179566
-0.0318914374 0.1695791241 0.1939060660
-0.0297893744 0.1436006259 0.1993028158
-0.0297893744 0.1695791241 0.1939060660
-0.0303732808 0.1647081557 0.1949179566
-0.0309571872 0.2020522468 0.1871601287
-0.0318914374 0.2020522468 0.1871601287
-0.0311323591 0.1858156854 0.1905330974
-0.0280414372 0.2427699948 0.2488400042
-0.0280934215 0.2472781197 0.2488400042
-0.0283186868 0.2481049942 0.2488400042
-0.0276948751 0.2431168705 0.2488400042
-0.0276948751 0.2487293705 0.2488400042
-0.0278681561 0.2475035889 0.2488400042
-0.0280414372 0.2553981198 0.2488400042
-0.0283186868 0.2551206192 0.2488400042
-0.0280934215 0.2518382759 0.2488400042
-0.0301008114 0.2085468713 0.2067290572
-0.0298438896 0.2134178397 0.2163028249
-0.0287305616 0.2345253695 0.2143608099
-0.0318136236 0.1760737486 0.2134749945
-0.0318136236 0.1760737486 0.2265034970
-0.0309572175 0.1923103100 0.2206876841
-0.0301008114 0.2085468713 0.2360431878
-0.0287305616 0.2345253695 0.2306464380
-0.0298438896 0.2134178397 0.2268884832
-0.0318914374 0.2410199940 0.1906553721
-0.0311323591 0.2410199940 0.1902414660
-0.0309571872 0.2410199940 0.1884478731
-0.0318914374 0.2410199940 0.1934147459
-0.0309571872 0.2410199940 0.1934147459
-0.0311323591 0.2410199940 0.1920350590
-0.0297893744 0.2410199940 0.1906553721
-0.0297893744 0.2410199940 0.1884478731
-0.0303732808 0.2410199940 0.1902414660
-0.0318914374 0.2188793691 0.2013256848
-0.0311323591 0.2222004628 0.2006357312
-0.0309571872 0.2365918690 0.1976459324
-0.0318914374 0.1967387442 0.2059253752
-0.0309571872 0.1967387442 0.2059253752
-0.0311323591 0.2078090566 0.2036255300
-0.0297893744 0.2188793691 0.2013256848
-0.0297893744 0.2365918690 0.1976459324
-0.0303732808 0.2222004628 0.2006357312
-0.0286215617 0.2085468713 0.1946419356
-0.0293806400 0.2134178397 0.1936300450
-0.0295558119 0.2345253695 0.1892451858
-0.0286215617 0.1760737486 0.2013878729
-0.0295558119 0.1760737486 0.2013878729
-0.0293806400 0.1923103100 0.1980149043
-0.0307236246 0.2085468713 0.1946419356
-0.0307236246 0.2345253695 0.1892451858
-0.0301397183 0.2134178397 0.1936300450
-0.0295558119 0.1371060014 0.2012039404
-0.0293806400 0.1371060014 0.2029977362
-0.0286215617 0.1371060014 0.2034116890
-0.0307236246 0.1371060014 0.2012039404
-0.0307236246 0.1371060014 0.2034116890
-0.0301397183 0.1371060014 0.2029977362
-0.0295558119 0.1371060014 0.2061713748
-0.0286215617 0.1371060014 0.2061713748
-0.0293806400 0.1371060014 0.2047915319
-0.0322339998 0.1371060014 0.1568130022
-0.0325882495 0.1371060014 0.1573320020
-0.0326699994 0.1371060014 0.1595810009
-0.0322339998 0.1371060014 0.1533530038
-0.0326699994 0.1371060014 0.1533530038
-0.0325882495 0.1371060014 0.1550830030
-0.0332149989 0.1371060014 0.1568130022
-0.0332149989 0.1371060014 0.1595810009
-0.0329424992 0.1371060014 0.1573320020
-0.0321249999 0.2085468713 0.1561905583
-0.0321249999 0.2134178397 0.1572932012
-0.0321249999 0.2345253695 0.1533963112
-0.0321249999 0.1760737486 0.1629364956
-0.0321249999 0.1760737486 0.1655389983
-0.0321249999 0.1923103100 0.1616780604
-0.0321249999 0.2085468713 0.1620461894
-0.0321249999 0.2345253695 0.1566494396
-0.0321249999 0.2134178397 0.1594077346
-0.0309571872 0.2345253695 0.1501431828
-0.0311323591 0.2134178397 0.1545280421
-0.0318914374 0.2085468713 0.1555399327
-0.0297893744 0.2345253695 0.1501431828
-0.0297893744 0.2085468713 0.1555399327
-0.0303732808 0.2134178397 0.1545280421
-0.0309571872 0.1760737486 0.1622858699
-0.0318914374 0.1760737486 0.1622858699
-0.0311323591 0.1923103100 0.1589129013
-0.0321249999 0.1695791241 0.1733944425
-0.0321249999 0.1647081557 0.1722917997
-0.0321249999 0.1436006259 0.1761886897
-0.0321249999 0.2020522468 0.1666485053
-0.0321249999 0.2020522468 0.1640460026
-0.0321249999 0.1858156854 0.1679069404
-0.0321249999 0.1695791241 0.1675388115
-0.0321249999 0.1436006259 0.1729355613
-0.0321249999 0.1647081557 0.1701772662
-0.0332149989 0.1371060014 0.1697492450
-0.0329424992 0.1371060014 0.1676960588
-0.0332149989 0.1371060014 0.1672222465
-0.0326699994 0.1371060014 0.1697492450
-0.0322339998 0.1371060014 0.1672222465
-0.0325882495 0.1371060014 0.1676960588
-0.0322339998 0.1371060014 0.1640634984
-0.0326699994 0.1371060014 0.1640634984
-0.0325882495 0.1371060014 0.1656428725
-0.0337599984 0.1371060014 0.1526610041
-0.0334057487 0.1371060014 0.1521420043
-0.0333239988 0.1371060014 0.1498930054
-0.0337599984 0.1371060014 0.1561210025
-0.0333239988 0.1371060014 0.1561210025
-0.0334057487 0.1371060014 0.1543910033
-0.0327789993 0.1371060014 0.1526610041
-0.0327789993 0.1371060014 0.1498930054
-0.0330514990 0.1371060014 0.1521420043
-0.0338689983 0.1357511887 0.1687195590
-0.0338689983 0.1313480476 0.1740596367
-0.0338689983 0.1303319382 0.1772358073
-0.0338689983 0.1357511887 0.1655608108
-0.0338689983 0.1303319382 0.1715500606
-0.0338689983 0.1313480476 0.1720064504
-0.0338689983 0.1235578749 0.1821953710
-0.0338689983 0.1235578749 0.1847223695
-0.0338689983 0.1269449065 0.1789259021
-0.0338689983 0.0872661876 0.0278361854
-0.0338689983 0.0867545468 0.0135646701
-0.0338689983 0.0786349378 -0.0360460631
-0.0338689983 0.1002686871 0.1031018086
-0.0338689983 0.1020394368 0.0994320586
-0.0338689983 0.0952061715 0.0624873252
-0.0338689983 0.0912503744 0.0195792480
-0.0338689983 0.0808483749 -0.0406332505
-0.0338689983 0.0881932810 0.0105829983
-0.0338689983 0.0782743110 -0.0818013106
-0.0338689983 0.0780950141 -0.0911310773
-0.0338689983 0.0773180607 -0.0983525612
-0.0338689983 0.0794696240 -0.0735650617
-0.0338689983 0.0794696240 -0.0835273131
-0.0338689983 0.0788719675 -0.0857775154
-0.0338689983 0.0782743110 -0.1042163763
-0.0338689983 0.0773180607 -0.1108053755
-0.0338689983 0.0780950141 -0.0992254065
-0.0309259988 0.0770789981 -0.1488581914
-0.0285086868 0.0770789981 -0.1456388631
-0.0292444992 0.0770789981 -0.1316884402
-0.0288238117 0.0770789981 -0.1703203805
-0.0254605623 0.0770789981 -0.1703203805
-0.0271422651 0.0770789981 -0.1595892860
-0.0233586878 0.0770789981 -0.1488581914
-0.0250404375 0.0770789981 -0.1316884402
-0.0257760467 0.0770789981 -0.1456388631
-0.0254447495 0.0635126878 -0.2289010659
-0.0199286871 0.0623262348 -0.2274124566
-0.0186557496 0.0571849386 -0.2209618166
-0.0254447495 0.0714223743 -0.2388251275
-0.0186557496 0.0714223743 -0.2388251275
-0.0199286871 0.0674675311 -0.2338630967
-0.0101694998 0.0635126878 -0.2289010659
-0.0101694998 0.0571849386 -0.2209618166
-0.0144126247 0.0623262348 -0.2274124566
0.0085002502 0.0793320609 -0.2487491891
0.0072273127 0.0741907646 -0.2422985490
0.0017112500 0.0730043116 -0.2408099398
0.0169865004 0.0793320609 -0.2487491891
0.0169865004 0.0730043116 -0.2408099398
0.0127433753 0.0741907646 -0.2422985490
0.0085002502 0.0650946251 -0.2308858782
0.0017112500 0.0650946251 -0.2308858782
0.0072273127 0.0690494684 -0.2358479090
-0.0271419995 0.0123304995 -0.2118201302
-0.0271419995 0.0238197498 -0.2128936613
-0.0271419995 0.0069615003 -0.2175456295
-0.0271419995 0.0440336239 -0.2046632562
-0.0271419995 0.0640271242 -0.2046632562
-0.0271419995 0.0444267807 -0.2082416932
-0.0271419995 0.0573158752 -0.2118201302
-0.0271419995 0.0319533757 -0.2175456295
-0.0271419995 0.0400644688 -0.2128936613
0.0191041880 0.0809139982 -0.2893508729
0.0217435475 0.0809139982 -0.2835583421
0.0275749383 0.0809139982 -0.2584573757
0.0106179378 0.0809139982 -0.3279677443
0.0122996879 0.0809139982 -0.3279677443
0.0162274849 0.0809139982 -0.3086593086
0.0228881258 0.0809139982 -0.2893508729
0.0296771260 0.0809139982 -0.2584573757
0.0231099695 0.0809139982 -0.2835583421
0.0338970013 0.0806743107 -0.1887551304
0.0338970013 0.0882843890 -0.1068903492
0.0338970013 0.0893030609 -0.0774871316
0.0338970013 0.0818727482 -0.2058360660
0.0338970013 0.0914602485 -0.1082328157
0.0338970013 0.0890633734 -0.1179929574
0.0338970013 0.1022461862 0.0308521828
0.0338970013 0.1012874362 0.0445169313
0.0338970013 0.0960742329 -0.0275877083
0.0338970013 0.1303319382 0.1078095597
0.0338970013 0.1313480476 0.0996643257
0.0338970013 0.1357511887 0.0737783110
0.0338970013 0.1235578749 0.1468198707
0.0338970013 0.1235578749 0.1439968708
0.0338970013 0.1269449065 0.1250210278
0.0338970013 0.1303319382 0.1014578100
0.0338970013 0.1357511887 0.0702495612
0.0338970013 0.1313480476 0.0973706383
0.0169077504 0.1733905589 -0.5019789934
0.0148292504 0.1754828894 -0.5019789934
0.0096782501 0.1861488102 -0.5019789934
0.0244986883 0.1568430616 -0.5019789934
0.0233419383 0.1563633149 -0.5019789934
0.0197633600 0.1647270161 -0.5019789934
0.0143050629 0.1723111290 -0.5019789934
0.0082323126 0.1855491269 -0.5019789934
0.0138893910 0.1750930953 -0.5019789934
0.0003243125 0.1875286922 -0.5062614940
0.0013328281 0.1876609270 -0.5056191189
0.0015655625 0.1876914427 -0.5028354935
0.0003243125 0.1875286922 -0.5105439946
0.0015655625 0.1876914427 -0.5105439946
0.0013328281 0.1876609270 -0.5084027443
0.0031171250 0.1878948808 -0.5062614940
0.0031171250 0.1878948808 -0.5028354935
0.0023413437 0.1877931617 -0.5056191189
-0.0002963125 0.1875286922 -0.5114004947
-0.0013048282 0.1876609270 -0.5120428698
-0.0015375626 0.1876914427 -0.5148264952
-0.0002963125 0.1875286922 -0.5071179941
-0.0015375626 0.1876914427 -0.5071179941
-0.0013048282 0.1876609270 -0.5092592444
-0.0030891251 0.1878948808 -0.5114004947
-0.0030891251 0.1878948808 -0.5148264952
-0.0023133439 0.1877931617 -0.5120428698
-0.0032938124 0.1899380563 -0.5156829953
-0.0032532031 0.1895482622 -0.5156829953
-0.0069330625 0.1894583097 -0.5156829953
0.0027011876 0.1899380563 -0.5156829953
0.0038579375 0.1894583097 -0.5156829953
0.0006435469 0.1895482622 -0.5156829953
-0.0006911251 0.1888586264 -0.5156829953
-0.0054871251 0.1888586264 -0.5156829953
-0.0023133438 0.1891584680 -0.5156829953
0.0108901249 0.1919629946 -0.5156829953
0.0063725937 0.1914867442 -0.5156829953
0.0060941249 0.1919629946 -0.5156829953
0.0096485625 0.1910104938 -0.5156829953
0.0038593126 0.1902484931 -0.5156829953
0.0055655781 0.1908676187 -0.5156829953
-0.0021356874 0.1902484931 -0.5156829953
-0.0011424375 0.1910104938 -0.5156829953
0.0016688282 0.1908676187 -0.5156829953
0.0066218125 0.1926760599 -0.5156829953
0.0053937656 0.1925475141 -0.5156829953
0.0032305625 0.1924063116 -0.5156829953
0.0096764999 0.1928573092 -0.5156829953
0.0087289999 0.1927325604 -0.5156829953
0.0073793124 0.1926653262 -0.5156829953
0.0044899374 0.1923953751 -0.5156829953
0.0020461875 0.1922503756 -0.5156829953
0.0046239218 0.1924461557 -0.5156829953
-0.0045959378 0.1991594387 -0.5019789934
-0.0053121095 0.1985433612 -0.5019789934
-0.0103546876 0.1984011894 -0.5019789934
0.0033296872 0.1991594387 -0.5019789934
0.0039114374 0.1984011894 -0.5019789934
-0.0001604533 0.1985433612 -0.5019789934
-0.0032869999 0.1974533778 -0.5019789934
-0.0096274999 0.1974533778 -0.5019789934
-0.0048394375 0.1979272836 -0.5019789934
-0.0051985625 0.2026593080 -0.5019789934
-0.0062273907 0.2019420748 -0.5019789934
-0.0119048126 0.2017765595 -0.5019789934
0.0036414376 0.2026593080 -0.5019789934
0.0040071876 0.2017765595 -0.5019789934
-0.0004813906 0.2019420748 -0.5019789934
-0.0043756251 0.2006731238 -0.5019789934
-0.0114476252 0.2006731238 -0.5019789934
-0.0059302188 0.2012248416 -0.5019789934
-0.0002228750 0.1920581898 -0.5062614940
-0.0009927188 0.1921595482 -0.5056191189
-0.0011703750 0.1921829386 -0.5028354935
-0.0002228750 0.1920581898 -0.5105439946
-0.0011703750 0.1921829386 -0.5105439946
-0.0009927188 0.1921595482 -0.5084027443
-0.0023547501 0.1923388746 -0.5062614940
-0.0023547501 0.1923388746 -0.5028354935
-0.0017625626 0.1922609066 -0.5056191189
-0.0036141250 0.1934403703 -0.5019789934
-0.0034177188 0.1932117771 -0.5019789934
-0.0055091250 0.1934403703 -0.5019789934
-0.0001419374 0.1929831840 -0.5019789934
0.0007408125 0.1926174350 -0.5019789934
-0.0011607969 0.1929146061 -0.5019789934
-0.0016279375 0.1926174350 -0.5019789934
-0.0044056876 0.1929831840 -0.5019789934
-0.0027004844 0.1929146061 -0.5019789934
-0.0046269997 0.1954433750 -0.5019789934
-0.0048394372 0.1950797797 -0.5019789934
-0.0082874997 0.1954433750 -0.5019789934
0.0008964378 0.1947161844 -0.5019789934
0.0016546877 0.1941344319 -0.5019789934
-0.0012492029 0.1946071058 -0.5019789934
-0.0029209374 0.1941344319 -0.5019789934
-0.0073396873 0.1947161844 -0.5019789934
-0.0042233592 0.1946071058 -0.5019789934
-0.0054459374 0.2064331258 -0.5019789934
-0.0067173593 0.2056632808 -0.5019789934
-0.0126426874 0.2054856243 -0.5019789934
0.0037059376 0.2064331258 -0.5019789934
0.0038306876 0.2054856243 -0.5019789934
-0.0007686406 0.2056632808 -0.5019789934
-0.0051652500 0.2043012474 -0.5019789934
-0.0124867500 0.2043012474 -0.5019789934
-0.0066160000 0.2048934358 -0.5019789934
-0.0142859375 0.2092756303 -0.5028354935
-0.0142625469 0.2094532868 -0.5056191189
-0.0141611875 0.2102231318 -0.5062614940
-0.0144418749 0.2080912534 -0.5028354935
-0.0144418749 0.2080912534 -0.5062614940
-0.0143639062 0.2086834419 -0.5056191189
-0.0142859375 0.2092756303 -0.5105439946
-0.0141611875 0.2102231318 -0.5105439946
-0.0142625469 0.2094532868 -0.5084027443
-0.0131241877 0.2128875656 -0.5028354935
-0.0130556096 0.2130530810 -0.5056191189
-0.0127584378 0.2137703141 -0.5062614940
-0.0135813751 0.2117841300 -0.5028354935
-0.0135813751 0.2117841300 -0.5062614940
-0.0133527814 0.2123358478 -0.5056191189
-0.0131241877 0.2128875656 -0.5105439946
-0.0127584378 0.2137703141 -0.5105439946
-0.0130556096 0.2130530810 -0.5084027443
-0.0119398126 0.2149388129 -0.5148264952
-0.0120488907 0.2147966411 -0.5120428698
-0.0125215627 0.2141805636 -0.5114004947
-0.0112126248 0.2158866245 -0.5148264952
-0.0112126248 0.2158866245 -0.5114004947
-0.0115762187 0.2154127187 -0.5120428698
-0.0119398126 0.2149388129 -0.5071179941
-0.0125215627 0.2141805636 -0.5071179941
-0.0120488907 0.2147966411 -0.5092592444
-0.0086450623 0.2186791832 -0.5156829953
-0.0097712029 0.2189682315 -0.5156829953
-0.0094478123 0.2194824340 -0.5156829953
-0.0095928747 0.2179519972 -0.5156829953
-0.0111538746 0.2181734992 -0.5156829953
-0.0103872809 0.2184955606 -0.5156829953
-0.0121573121 0.2191775627 -0.5156829953
-0.0113990622 0.2197593115 -0.5156829953
-0.0110395153 0.2191482019 -0.5156829953
-0.0054903750 0.2203207510 -0.5156829953
-0.0073104062 0.2202721259 -0.5156829953
-0.0070513749 0.2205422530 -0.5156829953
-0.0065938125 0.2198635601 -0.5156829953
-0.0090375624 0.2197193094 -0.5156829953
-0.0080276405 0.2199749518 -0.5156829953
-0.0109888122 0.2199961869 -0.5156829953
-0.0101060623 0.2203619396 -0.5156829953
-0.0092959530 0.2201549222 -0.5156829953
-0.0017698750 0.2212797524 -0.5156829953
-0.0035405937 0.2217040651 -0.5156829953
-0.0032203750 0.2218977520 -0.5156829953
-0.0029542501 0.2211241284 -0.5156829953
-0.0053522500 0.2216176288 -0.5156829953
-0.0043104375 0.2216029095 -0.5156829953
-0.0071653749 0.2223901283 -0.5156829953
-0.0062178749 0.2225146275 -0.5156829953
-0.0054889687 0.2221050342 -0.5156829953
0.0216698749 0.2228443781 -0.5019789934
0.0213399688 0.2201077838 -0.5019789934
0.0193653749 0.2123883786 -0.5019789934
0.0247548751 0.2343621887 -0.5019789934
0.0249183753 0.2331204377 -0.5019789934
0.0233452189 0.2275943607 -0.5019789934
0.0220377503 0.2200504383 -0.5019789934
0.0195697502 0.2108361898 -0.5019789934
0.0214728127 0.2190988611 -0.5019789934
0.0172267505 0.2148173740 -0.5028354935
0.0171369381 0.2150342173 -0.5056191189
0.0167477508 0.2159738718 -0.5062614940
0.0178255001 0.2133717518 -0.5028354935
0.0178255001 0.2133717518 -0.5062614940
0.0175261253 0.2140945629 -0.5056191189
0.0172267505 0.2148173740 -0.5105439946
0.0167477508 0.2159738718 -0.5105439946
0.0171369381 0.2150342173 -0.5084027443
0.0156751880 0.2175048729 -0.5148264952
0.0158181100 0.2173185914 -0.5120428698
0.0164374383 0.2165113715 -0.5114004947
0.0147223752 0.2187467497 -0.5148264952
0.0147223752 0.2187467497 -0.5114004947
0.0151987816 0.2181258113 -0.5120428698
0.0156751880 0.2175048729 -0.5071179941
0.0164374383 0.2165113715 -0.5071179941
0.0158181100 0.2173185914 -0.5092592444
0.0070793750 0.2205422530 -0.5156829953
0.0073384063 0.2202721259 -0.5156829953
0.0055183751 0.2203207510 -0.5156829953
0.0101340624 0.2203619396 -0.5156829953
0.0110168124 0.2199961869 -0.5156829953
0.0093239531 0.2201549222 -0.5156829953
0.0090655626 0.2197193094 -0.5156829953
0.0066218126 0.2198635601 -0.5156829953
0.0080556407 0.2199749518 -0.5156829953
0.0032483750 0.2218977520 -0.5156829953
0.0035685938 0.2217040651 -0.5156829953
0.0017978750 0.2212797524 -0.5156829953
0.0062458750 0.2225146275 -0.5156829953
0.0071933751 0.2223901283 -0.5156829953
0.0055169688 0.2221050342 -0.5156829953
0.0053802501 0.2216176288 -0.5156829953
0.0029822501 0.2211241284 -0.5156829953
0.0043384376 0.2216029095 -0.5156829953
0.0286495627 0.2410199940 0.0401544378
0.0294086406 0.2410199940 0.0396251721
0.0295838125 0.2410199940 0.0373316875
0.0286495627 0.2410199940 0.0436828756
0.0295838125 0.2410199940 0.0436828756
0.0294086406 0.2410199940 0.0419186567
0.0307516246 0.2410199940 0.0401544378
0.0307516246 0.2410199940 0.0373316875
0.0301677185 0.2410199940 0.0396251721
0.0284160003 0.2414871193 0.0599753754
0.0284160003 0.2430052767 0.0756997811
0.0284160003 0.2433556207 0.0813913746
0.0284160003 0.2414871193 0.0566231881
0.0284160003 0.2433556207 0.0753574374
0.0284160003 0.2430052767 0.0735208593
0.0284160003 0.2456912473 0.1021274363
0.0284160003 0.2456912473 0.1048091862
0.0284160003 0.2445234340 0.0909213586
0.0295118131 0.2107610628 -0.5019789934
0.0272496410 0.2064787671 -0.5019789934
0.0256735627 0.2269113138 -0.5019789934
0.0312246259 0.1759523135 -0.5019789934
0.0287566257 0.1642555650 -0.5019789934
0.0283629693 0.1838530800 -0.5019789934
0.0239588127 0.1844433788 -0.5019789934
0.0225885625 0.2122903783 -0.5019789934
0.0252443909 0.1969751590 -0.5019789934
0.0284160003 0.2414871193 0.1138044349
0.0284160003 0.2430052767 0.1178358569
0.0284160003 0.2433556207 0.1211061846
0.0284160003 0.2414871193 0.1100019356
0.0284160003 0.2433556207 0.1142616859
0.0284160003 0.2430052767 0.1153642323
0.0284160003 0.2456912473 0.1233888729
0.0284160003 0.2456912473 0.1264308724
0.0284160003 0.2445234340 0.1212969039
0.0284160003 0.2345253695 0.1213511871
0.0284160003 0.2134178397 0.1252170459
0.0284160003 0.2085468713 0.1239799345
0.0284160003 0.2345253695 0.1248111902
0.0284160003 0.2085468713 0.1302079400
0.0284160003 0.2134178397 0.1274660479
0.0284160003 0.1760737486 0.1334938742
0.0284160003 0.1760737486 0.1307258718
0.0284160003 0.1923103100 0.1296019051
0.0319194368 0.2410199940 0.1352260029
0.0311603589 0.2410199940 0.1357450027
0.0309851870 0.2410199940 0.1379940016
0.0319194368 0.2410199940 0.1317660045
0.0309851870 0.2410199940 0.1317660045
0.0311603589 0.2410199940 0.1334960037
0.0298173749 0.2410199940 0.1352260029
0.0298173749 0.2410199940 0.1379940016
0.0304012810 0.2410199940 0.1357450027
0.0295838125 0.2345253695 0.1289631939
0.0294086406 0.2134178397 0.1333480531
0.0286495627 0.2085468713 0.1343599437
0.0307516246 0.2345253695 0.1289631939
0.0307516246 0.2085468713 0.1343599437
0.0301677185 0.2134178397 0.1333480531
0.0295838125 0.1760737486 0.1411058810
0.0286495627 0.1760737486 0.1411058810
0.0294086406 0.1923103100 0.1377329123
0.0284160003 0.1436006259 0.1658730591
0.0284160003 0.1647081557 0.1619620121
0.0284160003 0.1695791241 0.1630033078
0.0284160003 0.1436006259 0.1627143109
0.0284160003 0.1695791241 0.1573175611
0.0284160003 0.1647081557 0.1599088258
0.0284160003 0.2020522468 0.1537303720
0.0284160003 0.2020522468 0.1562573705
0.0284160003 0.1858156854 0.1575771528
0.0295838125 0.1436006259 0.1589238131
0.0294086406 0.1647081557 0.1545389539
0.0286495627 0.1695791241 0.1535270633
0.0307516246 0.1436006259 0.1589238131
0.0307516246 0.1695791241 0.1535270633
0.0301677185 0.1647081557 0.1545389539
0.0295838125 0.2020522468 0.1467811260
0.0286495627 0.2020522468 0.1467811260
0.0294086406 0.1858156854 0.1501540947
0.0286495627 0.2410199940 0.1520471238
0.0294086406 0.2410199940 0.1515591545
0.0295838125 0.2410199940 0.1494446211
0.0286495627 0.2410199940 0.1553002521
0.0295838125 0.2410199940 0.1553002521
0.0294086406 0.2410199940 0.1536736879
0.0307516246 0.2410199940 0.1520471238
0.0307516246 0.2410199940 0.1494446211
0.0301677185 0.2410199940 0.1515591545
0.0280835001 0.2553846855 0.2488400042
0.0281333751 0.2518268568 0.2488400042
0.0283495003 0.2551179323 0.2488400042
0.0277509999 0.2487025019 0.2488400042
0.0277509999 0.2430900019 0.2488400042
0.0279172500 0.2474834374 0.2488400042
0.0280835001 0.2427565604 0.2488400042
0.0283495003 0.2481023073 0.2488400042
0.0281333751 0.2472667005 0.2488400042
0.0284160003 0.2345253695 0.1638063174
0.0284160003 0.2134178397 0.1677032080
0.0284160003 0.2085468713 0.1666005682
0.0284160003 0.2345253695 0.1670594411
0.0284160003 0.2085468713 0.1724561909
0.0284160003 0.2134178397 0.1698177385
0.0284160003 0.1760737486 0.1759490045
0.0284160003 0.1760737486 0.1733465055
0.0284160003 0.1923103100 0.1720880673
0.0319194368 0.2410199940 0.1761115659
0.0311603589 0.2410199940 0.1765545816
0.0309851870 0.2410199940 0.1784743164
0.0319194368 0.2410199940 0.1731581278
0.0309851870 0.2410199940 0.1731581278
0.0311603589 0.2410199940 0.1746348469
0.0298173749 0.2410199940 0.1761115659
0.0298173749 0.2410199940 0.1784743164
0.0304012810 0.2410199940 0.1765545816
0.0295838125 0.2345253695 0.1709631896
0.0294086406 0.2134178397 0.1753480488
0.0286495627 0.2085468713 0.1763599394
0.0307516246 0.2345253695 0.1709631896
0.0307516246 0.2085468713 0.1763599394
0.0301677185 0.2134178397 0.1753480488
0.0295838125 0.1760737486 0.1831058767
0.0286495627 0.1760737486 0.1831058767
0.0294086406 0.1923103100 0.1797329080
0.0284160003 0.1436006259 0.2053741245
0.0284160003 0.1647081557 0.2014032181
0.0284160003 0.1695791241 0.2021851232
0.0284160003 0.1436006259 0.2026144387
0.0284160003 0.1695791241 0.1972176889
0.0284160003 0.1647081557 0.1996094224
0.0284160003 0.2020522468 0.1932314374
0.0284160003 0.2020522468 0.1954391859
0.0284160003 0.1858156854 0.1970183589
0.0295838125 0.1436006259 0.1993028158
0.0294086406 0.1647081557 0.1949179566
0.0286495627 0.1695791241 0.1939060660
0.0307516246 0.1436006259 0.1993028158
0.0307516246 0.1695791241 0.1939060660
0.0301677185 0.1647081557 0.1949179566
0.0295838125 0.2020522468 0.1871601287
0.0286495627 0.2020522468 0.1871601287
0.0294086406 0.1858156854 0.1905330974
0.0286495627 0.2410199940 0.1906553721
0.0294086406 0.2410199940 0.1902414660
0.0295838125 0.2410199940 0.1884478731
0.0286495627 0.2410199940 0.1934147459
0.0295838125 0.2410199940 0.1934147459
0.0294086406 0.2410199940 0.1920350590
0.0307516246 0.2410199940 0.1906553721
0.0307516246 0.2410199940 0.1884478731
0.0301677185 0.2410199940 0.1902414660
0.0284160003 0.2424231190 0.2325543761
0.0284160003 0.2469832753 0.2349972203
0.0284160003 0.2480356190 0.2455828786
0.0284160003 0.2424231190 0.2162687480
0.0284160003 0.2480356190 0.2162687480
0.0284160003 0.2469832753 0.2244115621
0.0284160003 0.2550512441 0.2325543761
0.0284160003 0.2550512441 0.2455828786
0.0284160003 0.2515434315 0.2349972203
0.0180977502 0.2413534354 0.2488400042
0.0136100626 0.2413034192 0.2488400042
0.0178317502 0.2410866823 0.2488400042
0.0095546251 0.2416868769 0.2488400042
0.0024541250 0.2416868769 0.2488400042
0.0080570313 0.2415201562 0.2488400042
0.0021216250 0.2413534354 0.2488400042
0.0089561251 0.2410866823 0.2488400042
0.0078409063 0.2413034192 0.2488400042
0.0112632500 0.2417535651 0.2488400042
0.0153186875 0.2418035814 0.2488400042
0.0109972499 0.2420203183 0.2488400042
0.0198063752 0.2414201237 0.2488400042
0.0263748751 0.2414201237 0.2488400042
0.0208717188 0.2415868444 0.2488400042
0.0260423749 0.2417535651 0.2488400042
0.0192078748 0.2420203183 0.2488400042
0.0206555937 0.2418035814 0.2488400042
-0.0088616247 0.2345253695 0.2501891907
-0.0075302810 0.2134178397 0.2545740469
-0.0017611249 0.2085468713 0.2555859368
-0.0177372495 0.2345253695 0.2501891907
-0.0177372495 0.2085468713 0.2555859368
-0.0132994371 0.2134178397 0.2545740469
-0.0088616247 0.1760737486 0.2623318695
-0.0017611249 0.1760737486 0.2623318695
-0.0075302810 0.1923103100 0.2589589031
-0.0259890627 0.2417831207 0.2488400042
-0.0206184532 0.2418351520 0.2488400042
-0.0191658129 0.2420606213 0.2488400042
-0.0263356247 0.2414362449 0.2488400042
-0.0197896245 0.2414362449 0.2488400042
-0.0208437185 0.2416096828 0.2488400042
-0.0112605623 0.2417831207 0.2488400042
-0.0109833126 0.2420606213 0.2488400042
-0.0152998281 0.2418351520 0.2488400042
-0.0295558119 0.1436006259 0.1898518139
-0.0293806400 0.1647081557 0.1854669547
-0.0286215617 0.1695791241 0.1844550641
-0.0307236246 0.1436006259 0.1898518139
-0.0307236246 0.1695791241 0.1844550641
-0.0301397183 0.1647081557 0.1854669547
-0.0295558119 0.2020522468 0.1777091268
-0.0286215617 0.2020522468 0.1777091268
-0.0293806400 0.1858156854 0.1810820955
-0.0286215617 0.1371060014 0.1879478777
-0.0293806400 0.1371060014 0.1884358462
-0.0295558119 0.1371060014 0.1905503767
-0.0286215617 0.1371060014 0.1846947540
-0.0295558119 0.1371060014 0.1846947540
-0.0293806400 0.1371060014 0.1863213158
-0.0307236246 0.1371060014 0.1879478777
-0.0307236246 0.1371060014 0.1905503767
-0.0301397183 0.1371060014 0.1884358462
-0.0318914374 0.1371060014 0.1840441292
-0.0311323591 0.1371060014 0.1835561607
-0.0309571872 0.1371060014 0.1814416302
-0.0318914374 0.1371060014 0.1872972529
-0.0309571872 0.1371060014 0.1872972529
-0.0311323591 0.1371060014 0.1856706911
-0.0297893744 0.1371060014 0.1840441292
-0.0297893744 0.1371060014 0.1814416302
-0.0303732808 0.1371060014 0.1835561607
-0.0321249999 0.1695791241 0.1933153784
-0.0321249999 0.1647081557 0.1924075342
-0.0321249999 0.1436006259 0.1963493777
-0.0321249999 0.2020522468 0.1865694411
-0.0321249999 0.2020522468 0.1842066906
-0.0321249999 0.1858156854 0.1880226750
-0.0321249999 0.1695791241 0.1879991898
-0.0321249999 0.1436006259 0.1933959397
-0.0321249999 0.1647081557 0.1904877995
-0.0321561861 0.1695791241 0.2604239313
-0.0324131079 0.1647081557 0.2508501660
-0.0335264358 0.1436006259 0.2527921787
-0.0304433738 0.2020522468 0.2536779987
-0.0304433738 0.2020522468 0.2406494999
-0.0312997799 0.1858156854 0.2464653098
-0.0321561861 0.1695791241 0.2311098091
-0.0335264358 0.1436006259 0.2365065552
-0.0324131079 0.1647081557 0.2402645107
-0.0321249999 0.2085468713 0.1951938104
-0.0321249999 0.2134178397 0.1959755127
-0.0321249999 0.2345253695 0.1920045596
-0.0321249999 0.1760737486 0.2019397477
-0.0321249999 0.1760737486 0.2041472467
-0.0321249999 0.1923103100 0.2003603720
-0.0321249999 0.2085468713 0.2001606831
-0.0321249999 0.2345253695 0.1947639333
-0.0321249999 0.2134178397 0.1977691057
-0.0318914374 0.1695791241 0.2027370604
-0.0311323591 0.1647081557 0.2037489510
-0.0309571872 0.1436006259 0.2081338102
-0.0318914374 0.2020522468 0.1959911231
-0.0309571872 0.2020522468 0.1959911231
-0.0311323591 0.1858156854 0.1993640917
-0.0297893744 0.1695791241 0.2027370604
-0.0297893744 0.1436006259 0.2081338102
-0.0303732808 0.1647081557 0.2037489510
-0.0309571872 0.1371060014 0.2089310605
-0.0311323591 0.1371060014 0.2071372648
-0.0318914374 0.1371060014 0.2067233119
-0.0297893744 0.1371060014 0.2089310605
-0.0297893744 0.1371060014 0.2067233119
-0.0303732808 0.1371060014 0.2071372648
-0.0309571872 0.1371060014 0.2039636262
-0.0318914374 0.1371060014 0.2039636262
-0.0311323591 0.1371060014 0.2053434690
-0.0337599984 0.1371060014 0.1634317487
-0.0334057487 0.1371060014 0.1629579365
-0.0333239988 0.1371060014 0.1609047502
-0.0337599984 0.1371060014 0.1665904969
-0.0333239988 0.1371060014 0.1665904969
-0.0334057487 0.1371060014 0.1650111228
-0.0327789993 0.1371060014 0.1634317487
-0.0327789993 0.1371060014 0.1609047502
-0.0330514990 0.1371060014 0.1629579365
-0.0322339998 0.1371060014 0.1775378771
-0.0325882495 0.1371060014 0.1780258464
