0.1548306793 0.1172667421 -0.0375888018
0.1580351820 0.1157931287 -0.0369476003
0.1595606075 0.1193565939 -0.0384981420
0.1606779262 0.1182044961 -0.0379968391
0.1632894834 0.1176418437 -0.0377520167
0.1544153956 0.1202139690 -0.0388712047
0.1547855951 0.1187671486 -0.0382416614
0.1577802050 0.1185795978 -0.0381600540
0.1615441826 0.1156591638 -0.0368893092
0.1649028590 0.1153912341 -0.0367727272
0.1613342898 0.1169452265 -0.0374489033
0.1493680510 0.1202139690 -0.0388712047
0.1492628110 0.1185795978 -0.0381600540
0.1518833719 0.1187671486 -0.0382416614
0.1459327771 0.1193565939 -0.0384981420
0.1456237773 0.1176418437 -0.0377520167
0.1471131876 0.1182044961 -0.0379968391
0.1484989891 0.1153912341 -0.0367727272
0.1513233098 0.1156591638 -0.0368893092
0.1489682955 0.1169452265 -0.0374489033
0.1531600839 0.1132477964 -0.0358400705
0.1568338931 0.1133281753 -0.0358750451
0.1540034394 0.1144266871 -0.0363530316
0.1582087334 0.1118545618 -0.0352338436
0.1622466091 0.1118545618 -0.0352338436
0.1596398801 0.1124440072 -0.0354903242
0.1645166093 0.1132477964 -0.0358400705
0.1613220890 0.1144266871 -0.0363530316
0.1606824934 0.1133281753 -0.0358750451
0.1548306793 0.1172667421 -0.0375888018
0.1545651326 0.1157931287 -0.0369476003
0.1580351820 0.1157931287 -0.0369476003
0.1423610125 0.1161414373 -0.0370991570
0.1413450856 0.1155519919 -0.0368426764
0.1389411383 0.1161414373 -0.0370991570
0.1471006613 0.1147482028 -0.0364929301
0.1467787446 0.1135693120 -0.0359799690
0.1440158847 0.1146678239 -0.0364579555
0.1405802225 0.1135693120 -0.0359799690
0.1374822650 0.1147482028 -0.0364929301
0.1407563171 0.1146678239 -0.0364579555
0.1517617562 0.1126047650 -0.0355602734
0.1518814823 0.1110507727 -0.0348840973
0.1494588741 0.1123368353 -0.0354436914
0.1549459687 0.1103541554 -0.0345809839
0.1552549703 0.1086394052 -0.0338348586
0.1538717780 0.1097915030 -0.0343361615
0.1526308233 0.1077820301 -0.0334617959
0.1500189396 0.1092288506 -0.0340913392
0.1521759995 0.1094164014 -0.0341729466
0.1483559805 0.1077820301 -0.0334617959
0.1449622023 0.1094164014 -0.0341729466
0.1475609050 0.1092288506 -0.0340913392
0.1437128948 0.1086394052 -0.0338348586
0.1399840189 0.1103541554 -0.0345809839
0.1423831380 0.1097915030 -0.0343361615
0.1378685171 0.1126047650 -0.0355602734
0.1408023175 0.1123368353 -0.0354436914
0.1414081175 0.1110507727 -0.0348840973
0.1467578026 0.1122028705 -0.0353854003
0.1470233509 0.1107292570 -0.0347441988
0.1438188482 0.1122028705 -0.0353854003
0.1437128948 0.1086394052 -0.0338348586
0.1423831380 0.1097915030 -0.0343361615
0.1399840189 0.1103541554 -0.0345809839
0.1483559805 0.1077820301 -0.0334617959
0.1475609050 0.1092288506 -0.0340913392
0.1449622023 0.1094164014 -0.0341729466
0.1408023175 0.1123368353 -0.0354436914
0.1378685171 0.1126047650 -0.0355602734
0.1414081175 0.1110507727 -0.0348840973
0.1526308233 0.1077820301 -0.0334617959
0.1521759995 0.1094164014 -0.0341729466
0.1500189396 0.1092288506 -0.0340913392
0.1552549703 0.1086394052 -0.0338348586
0.1549459687 0.1103541554 -0.0345809839
0.1538717780 0.1097915030 -0.0343361615
0.1517617562 0.1126047650 -0.0355602734
0.1494588741 0.1123368353 -0.0354436914
0.1518814823 0.1110507727 -0.0348840973
0.1471006613 0.1147482028 -0.0364929301
0.1440158847 0.1146678239 -0.0364579555
0.1467787446 0.1135693120 -0.0359799690
0.1423610125 0.1161414373 -0.0370991570
0.1389411383 0.1161414373 -0.0370991570
0.1413450856 0.1155519919 -0.0368426764
0.1374822650 0.1147482028 -0.0364929301
0.1405802225 0.1135693120 -0.0359799690
0.1407563171 0.1146678239 -0.0364579555
0.1470233509 0.1107292570 -0.0347441988
0.1467578026 0.1122028705 -0.0353854003
0.1438188482 0.1122028705 -0.0353854003
0.1399807504 0.0979753595 0.0179995156
0.1399674384 0.0988394746 0.0196154160
0.1406842510 0.0992614843 0.0211278906
0.1384803286 0.0973322971 0.0152866563
0.1381019544 0.0984174649 0.0169542695
0.1390845831 0.0985581348 0.0182021191
0.1393770492 0.1007485662 0.0226244491
0.1404589240 0.1009495232 0.0240852108
0.1397551071 0.0997839725 0.0211838515
0.1367131417 0.0973322971 0.0135194688
0.1361024552 0.0985581348 0.0152199902
0.1370858219 0.0984174649 0.0159381367
0.1352093457 0.0979753595 0.0132281094
0.1344990968 0.0992614843 0.0149427343
0.1352181236 0.0988394746 0.0148660996
0.1347155665 0.1009495232 0.0183418514
0.1357984957 0.1007485662 0.0190458944
0.1354254991 0.0997839725 0.0168542421
0.1355949423 0.1025571792 0.0222523201
0.1369094457 0.1024968921 0.0234531580
0.1363041368 0.1016729684 0.0212944139
0.1368734112 0.1036021556 0.0255009997
0.1382871608 0.1036021556 0.0269147497
0.1375814459 0.1031600502 0.0253754841
0.1395711128 0.1025571792 0.0262284919
0.1388665578 0.1016729684 0.0238568357
0.1382569257 0.1024968921 0.0248006384
0.1375909358 0.0995428241 0.0185650156
0.1369805656 0.1006480877 0.0200385214
0.1381955066 0.1006480877 0.0212534628
0.1304427051 0.0979753595 0.0047126406
0.1292906912 0.0988394746 0.0058458848
0.1287280797 0.0992614843 0.0074222657
0.1313000178 0.0973322971 0.0017333358
0.1298533026 0.0984174649 0.0026450116
0.1296657655 0.0985581348 0.0042222265
0.1267455441 0.1007485662 0.0075562070
0.1264776339 0.1009495232 0.0093541563
0.1280315132 0.0997839725 0.0068048379
0.1313000178 0.0973322971 -0.0007658830
0.1296657655 0.0985581348 0.0000047947
0.1298533026 0.0984174649 0.0012079608
0.1304427051 0.0979753595 -0.0020352502
0.1287280797 0.0992614843 -0.0013250002
0.1292906912 0.0988394746 -0.0008707658
0.1264776339 0.1009495232 0.0012316951
0.1267455441 0.1007485662 0.0024952889
0.1280315132 0.0997839725 0.0006817518
0.1243343521 0.1025571792 0.0046187264
0.1244147252 0.1024968921 0.0063973671
0.1255131571 0.1016729684 0.0044428319
0.1229412190 0.1036021556 0.0078199843
0.1229412190 0.1036021556 0.0098193594
0.1235306215 0.1031600502 0.0082318808
0.1243343521 0.1025571792 0.0102419688
0.1255131571 0.1016729684 0.0080666992
0.1244147252 0.1024968921 0.0083030215
0.1283530054 0.0995428241 0.0034226815
0.1268794992 0.1006480877 0.0040330526
0.1268794992 0.1006480877 0.0057512656
0.1406842510 0.0992614843 -0.0214428900
0.1399674384 0.0988394746 -0.0199304155
0.1399807504 0.0979753595 -0.0183145152
0.1404589240 0.1009495232 -0.0244002102
0.1393770492 0.1007485662 -0.0229394486
0.1397551071 0.0997839725 -0.0214988510
0.1381019544 0.0984174649 -0.0172692692
0.1384803286 0.0973322971 -0.0156016560
0.1390845831 0.0985581348 -0.0185171188
0.1395711128 0.1025571792 -0.0265434914
0.1382569257 0.1024968921 -0.0251156380
0.1388665578 0.1016729684 -0.0241718353
0.1382871608 0.1036021556 -0.0272297492
0.1368734112 0.1036021556 -0.0258159993
0.1375814459 0.1031600502 -0.0256904837
0.1355949423 0.1025571792 -0.0225673198
0.1363041368 0.1016729684 -0.0216094136
0.1369094457 0.1024968921 -0.0237681576
0.1347155665 0.1009495232 -0.0186568513
0.1354254991 0.0997839725 -0.0171692420
0.1357984957 0.1007485662 -0.0193608942
0.1344990968 0.0992614843 -0.0152577343
0.1352093457 0.0979753595 -0.0135431094
0.1352181236 0.0988394746 -0.0151810995
0.1367131417 0.0973322971 -0.0138344687
0.1370858219 0.0984174649 -0.0162531365
0.1361024552 0.0985581348 -0.0155349901
0.1381955066 0.1006480877 -0.0215684624
0.1369805656 0.1006480877 -0.0203535211
0.1375909358 0.0995428241 -0.0188800153
0.1564996354 0.0960465635 0.0167385156
0.1553311143 0.0961871649 0.0171605254
0.1550330110 0.0964750631 0.0180246407
0.1568000882 0.0954841577 0.0150504765
0.1551963582 0.0955511107 0.0152514335
0.1553772392 0.0958724855 0.0162160273
0.1525381014 0.0963277664 0.0175825352
0.1526752070 0.0966893130 0.0186677032
0.1539793627 0.0962808992 0.0174418652
0.1561341507 0.0949485331 0.0134428202
0.1542534695 0.0949686190 0.0135031073
0.1548134441 0.0952431266 0.0143270312
0.1547016040 0.0946003771 0.0123978436
0.1527022296 0.0946003771 0.0123978436
0.1535414071 0.0947476739 0.0128399491
0.1505109100 0.0949485331 0.0134428202
0.1511895779 0.0952431266 0.0143270312
0.1523478157 0.0949686190 0.0135031073
0.1486776294 0.0954841577 0.0150504765
0.1492541548 0.0958724855 0.0162160273
0.1501354416 0.0955511107 0.0152514335
0.1477523721 0.0960465635 0.0167385156
0.1482851221 0.0964750631 0.0180246407
0.1486144657 0.0961871649 0.0171605254
0.1501759889 0.0966893130 0.0186677032
0.1511010510 0.0963277664 0.0175825352
0.1497619322 0.0962808992 0.0174418652
0.1534885266 0.0955845873 0.0153519120
0.1517703142 0.0955845873 0.0153519120
0.1522281463 0.0959528292 0.0164571758
0.1669094891 0.0960465635 0.0080781251
0.1663816346 0.0961871649 0.0092027969
0.1667818625 0.0964750631 0.0100246251
0.1659283260 0.0954841577 0.0066720157
0.1649364302 0.0955511107 0.0079481094
0.1657463948 0.0958724855 0.0085023008
0.1647051070 0.0963277664 0.0114761407
0.1655693762 0.0966893130 0.0121465470
0.1656247507 0.0962808992 0.0103575587
0.1643206700 0.0949485331 0.0060060782
0.1630334753 0.0949686190 0.0073785313
0.1640120280 0.0952431266 0.0075651954
0.1625688178 0.0946003771 0.0062800938
0.1611550665 0.0946003771 0.0076938438
0.1620610590 0.0947476739 0.0074130899
0.1603444942 0.0949485331 0.0099822500
0.1614496036 0.0952431266 0.0101276172
0.1616859935 0.0949686190 0.0087260118
0.1601849609 0.0954841577 0.0124153750
0.1614167811 0.0958724855 0.0128319102
0.1613578720 0.0955511107 0.0115266641
0.1607243267 0.0960465635 0.0142632813
0.1620104515 0.0964750631 0.0147960313
0.1616323135 0.0961871649 0.0139521133
0.1638021870 0.0966893130 0.0139137344
0.1636889732 0.0963277664 0.0124922735
0.1626426188 0.0962808992 0.0133396876
0.1637998763 0.0955845873 0.0092267618
0.1625849337 0.0955845873 0.0104417032
0.1636901972 0.0959528292 0.0108995352
0.1827747049 0.1060136396 0.0064882656
0.1816226916 0.1051495245 0.0071332129
0.1810600804 0.1047275148 0.0091978906
0.1836320171 0.1066567020 0.0023548046
0.1821853027 0.1055715342 0.0022898866
0.1819977657 0.1054308643 0.0047771093
0.1790775459 0.1032404330 0.0072010820
0.1788096358 0.1030394760 0.0099756250
0.1803635142 0.1042050266 0.0073597207
0.1836320171 0.1066567020 -0.0019200392
0.1819977657 0.1054308643 -0.0024366896
0.1821853027 0.1055715342 -0.0001681486
0.1827747049 0.1060136396 -0.0050538127
0.1810600804 0.1047275148 -0.0057640627
0.1816226916 0.1051495245 -0.0043554299
0.1788096358 0.1030394760 -0.0039176173
0.1790775459 0.1032404330 -0.0014554767
0.1803635142 0.1042050266 -0.0031136466
0.1766663552 0.1014318200 -0.0005305860
0.1767467282 0.1014921071 0.0026019687
0.1778451595 0.1023160308 0.0004920663
0.1752732228 0.1003868436 0.0033809219
0.1752732228 0.1003868436 0.0068007969
0.1758626250 0.1008289490 0.0047472168
0.1766663552 0.1014318200 0.0090878126
0.1778451595 0.1023160308 0.0066905899
0.1767467282 0.1014921071 0.0058615371
0.1806850063 0.1044461750 0.0019355956
0.1792115009 0.1033409115 0.0013252245
0.1792115009 0.1033409115 0.0042641796
0.1710862343 0.1161414373 -0.0325651730
0.1701865683 0.1155519919 -0.0331021396
0.1686681092 0.1161414373 -0.0349832978
0.1740089611 0.1147482028 -0.0287851573
0.1734186917 0.1135693120 -0.0286500281
0.1718030509 0.1146678239 -0.0309416083
0.1690358400 0.1135693120 -0.0330328793
0.1672079844 0.1147482028 -0.0355861333
0.1694982754 0.1146678239 -0.0332463835
0.1766453676 0.1126047650 -0.0248298446
0.1762519870 0.1110507727 -0.0242670181
0.1749346255 0.1123368353 -0.0263757233
0.1782045320 0.1103541554 -0.0218858286
0.1778955322 0.1086394052 -0.0211397033
0.1772719110 0.1097915030 -0.0224722367
0.1757763057 0.1077820301 -0.0227313670
0.1743745633 0.1092288506 -0.0250233711
0.1759574715 0.1094164014 -0.0235558673
0.1727536494 0.1077820301 -0.0257540230
0.1708567390 0.1094164014 -0.0286565994
0.1726365360 0.1092288506 -0.0267613983
0.1697343602 0.1086394052 -0.0293008745
0.1676252349 0.1103541554 -0.0324651247
0.1691485221 0.1097915030 -0.0305956247
0.1668217346 0.1126047650 -0.0346534766
0.1688137464 0.1123368353 -0.0324966017
0.1688464790 0.1110507727 -0.0316725253
0.1729835414 0.1122028705 -0.0282443755
0.1727179947 0.1107292570 -0.0276031740
0.1709054652 0.1122028705 -0.0303224515
0.1697343602 0.1086394052 -0.0293008745
0.1691485221 0.1097915030 -0.0305956247
0.1676252349 0.1103541554 -0.0324651247
0.1727536494 0.1077820301 -0.0257540230
0.1726365360 0.1092288506 -0.0267613983
0.1708567390 0.1094164014 -0.0286565994
0.1688137464 0.1123368353 -0.0324966017
0.1668217346 0.1126047650 -0.0346534766
0.1688464790 0.1110507727 -0.0316725253
0.1757763057 0.1077820301 -0.0227313670
0.1759574715 0.1094164014 -0.0235558673
0.1743745633 0.1092288506 -0.0250233711
0.1778955322 0.1086394052 -0.0211397033
0.1782045320 0.1103541554 -0.0218858286
0.1772719110 0.1097915030 -0.0224722367
0.1766453676 0.1126047650 -0.0248298446
0.1749346255 0.1123368353 -0.0263757233
0.1762519870 0.1110507727 -0.0242670181
0.1740089611 0.1147482028 -0.0287851573
0.1718030509 0.1146678239 -0.0309416083
0.1734186917 0.1135693120 -0.0286500281
0.1710862343 0.1161414373 -0.0325651730
0.1686681092 0.1161414373 -0.0349832978
0.1701865683 0.1155519919 -0.0331021396
0.1672079844 0.1147482028 -0.0355861333
0.1690358400 0.1135693120 -0.0330328793
0.1694982754 0.1146678239 -0.0332463835
0.1727179947 0.1107292570 -0.0276031740
0.1729835414 0.1122028705 -0.0282443755
0.1709054652 0.1122028705 -0.0303224515
0.1578962673 0.1060136396 -0.0316817021
0.1585412137 0.1051495245 -0.0305296884
0.1606058907 0.1047275148 -0.0299670771
0.1537628077 0.1066567020 -0.0325390145
0.1536978889 0.1055715342 -0.0310922997
0.1561851109 0.1054308643 -0.0309047626
0.1586090814 0.1032404330 -0.0279845421
0.1613836236 0.1030394760 -0.0277166319
0.1587677208 0.1042050266 -0.0292705108
0.1494879649 0.1066567020 -0.0325390145
0.1489713137 0.1054308643 -0.0309047626
0.1512398543 0.1055715342 -0.0310922997
0.1463541917 0.1060136396 -0.0316817021
0.1456439409 0.1047275148 -0.0299670771
0.1470525737 0.1051495245 -0.0305296884
0.1474903845 0.1030394760 -0.0277166319
0.1499525247 0.1032404330 -0.0279845421
0.1482943559 0.1042050266 -0.0292705108
0.1508774138 0.1014318200 -0.0255733508
0.1540099678 0.1014921071 -0.0256537238
0.1519000666 0.1023160308 -0.0267521554
0.1547889200 0.1003868436 -0.0241802180
0.1582087942 0.1003868436 -0.0241802180
0.1561552149 0.1008289490 -0.0247696203
0.1604958101 0.1014318200 -0.0255733508
0.1580985886 0.1023160308 -0.0267521554
0.1572695355 0.1014921071 -0.0256537238
0.1533435972 0.1044461750 -0.0295920029
0.1527332254 0.1033409115 -0.0281184971
0.1556721798 0.1033409115 -0.0281184971
0.1357191419 0.0964750631 0.0100246251
0.1361193705 0.0961871649 0.0092027969
0.1355915172 0.0960465635 0.0080781251
0.1369316258 0.0966893130 0.0121465470
0.1377958952 0.0963277664 0.0114761407
0.1368762530 0.0962808992 0.0103575587
0.1375645754 0.0955511107 0.0079481094
0.1365726813 0.0954841577 0.0066720157
0.1367546107 0.0958724855 0.0085023008
0.1386988127 0.0966893130 0.0139137344
0.1398583809 0.0962808992 0.0133396876
0.1388120277 0.0963277664 0.0124922735
0.1404905466 0.0964750631 0.0147960313
0.1417766714 0.0960465635 0.0142632813
0.1408686853 0.0961871649 0.0139521133
0.1423160387 0.0954841577 0.0124153750
0.1411431289 0.0955511107 0.0115266641
0.1410842186 0.0958724855 0.0128319102
0.1421565078 0.0949485331 0.0099822500
0.1408150102 0.0949686190 0.0087260118
0.1410513986 0.0952431266 0.0101276172
0.1413459380 0.0946003771 0.0076938438
0.1399321884 0.0946003771 0.0062800938
0.1404399460 0.0947476739 0.0074130899
0.1381803373 0.0949485331 0.0060060782
0.1384889776 0.0952431266 0.0075651954
0.1394675302 0.0949686190 0.0073785313
0.1388108052 0.0959528292 0.0108995352
0.1399160688 0.0955845873 0.0104417032
0.1387011278 0.0955845873 0.0092267618
0.1330683616 0.0964750631 -0.0039400159
0.1339324767 0.0961871649 -0.0042381194
0.1343544864 0.0960465635 -0.0054066409
0.1324252991 0.0966893130 -0.0015822111
0.1335104670 0.0963277664 -0.0014451056
0.1336511369 0.0962808992 -0.0028863674
0.1358415682 0.0955511107 -0.0041033635
0.1360425252 0.0954841577 -0.0057070940
0.1348769746 0.0958724855 -0.0042842444
0.1324252991 0.0966893130 0.0009170077
0.1336511369 0.0962808992 0.0013310644
0.1335104670 0.0963277664 -0.0000080548
0.1330683616 0.0964750631 0.0028078750
0.1343544864 0.0960465635 0.0033406250
0.1339324767 0.0961871649 0.0024785312
0.1360425252 0.0954841577 0.0024153672
0.1358415682 0.0955511107 0.0009575546
0.1348769746 0.0958724855 0.0018388418
0.1376501812 0.0949485331 0.0005820859
0.1375898941 0.0949686190 -0.0012548204
0.1367659704 0.0952431266 -0.0000965821
0.1386951576 0.0946003771 -0.0016092344
0.1386951576 0.0946003771 -0.0036086095
0.1382530522 0.0947476739 -0.0024484122
0.1376501812 0.0949485331 -0.0050411564
0.1367659704 0.0952431266 -0.0037204494
0.1375898941 0.0949686190 -0.0031604747
0.1346358262 0.0959528292 -0.0011351505
0.1357410897 0.0955845873 -0.0006773185
0.1357410897 0.0955845873 -0.0023955314
0.1463803579 0.0979753595 -0.0209652963
0.1452471146 0.0988394746 -0.0221173099
0.1436707345 0.0992614843 -0.0226799212
0.1493596614 0.0973322971 -0.0201079838
0.1484479866 0.0984174649 -0.0215546986
0.1468707722 0.0985581348 -0.0217422357
0.1435367941 0.1007485662 -0.0246624563
0.1417388455 0.1009495232 -0.0249303664
0.1442881624 0.0997839725 -0.0233764876
0.1518588795 0.0973322971 -0.0201079838
0.1510882028 0.0985581348 -0.0217422357
0.1498850370 0.0984174649 -0.0215546986
0.1531282468 0.0979753595 -0.0209652963
0.1524179978 0.0992614843 -0.0226799212
0.1519637633 0.0988394746 -0.0221173099
0.1498613043 0.1009495232 -0.0249303664
0.1485977108 0.1007485662 -0.0246624563
0.1504112468 0.0997839725 -0.0233764876
0.1464742750 0.1025571792 -0.0270736476
0.1446956348 0.1024968921 -0.0269932745
0.1466501689 0.1016729684 -0.0258948429
0.1432730188 0.1036021556 -0.0284667803
0.1412736443 0.1036021556 -0.0284667803
0.1428611221 0.1031600502 -0.0278773780
0.1408510343 0.1025571792 -0.0270736476
0.1430263027 0.1016729684 -0.0258948429
0.1427899810 0.1024968921 -0.0269932745
0.1476703176 0.0995428241 -0.0230549954
0.1470599474 0.1006480877 -0.0245285012
0.1453417350 0.1006480877 -0.0245285012
0.1355915172 0.0960465635 -0.0083931252
0.1361193705 0.0961871649 -0.0095177970
0.1357191419 0.0964750631 -0.0103396251
0.1365726813 0.0954841577 -0.0069870158
0.1375645754 0.0955511107 -0.0082631095
0.1367546107 0.0958724855 -0.0088173009
0.1377958952 0.0963277664 -0.0117911406
0.1369316258 0.0966893130 -0.0124615469
0.1368762530 0.0962808992 -0.0106725587
0.1381803373 0.0949485331 -0.0063210783
0.1394675302 0.0949686190 -0.0076935313
0.1384889776 0.0952431266 -0.0078801954
0.1399321884 0.0946003771 -0.0065950938
0.1413459380 0.0946003771 -0.0080088437
0.1404399460 0.0947476739 -0.0077280899
0.1421565078 0.0949485331 -0.0102972498
0.1410513986 0.0952431266 -0.0104426171
0.1408150102 0.0949686190 -0.0090410117
0.1423160387 0.0954841577 -0.0127303747
0.1410842186 0.0958724855 -0.0131469099
0.1411431289 0.0955511107 -0.0118416639
0.1417766714 0.0960465635 -0.0145782809
0.1404905466 0.0964750631 -0.0151110310
0.1408686853 0.0961871649 -0.0142671130
0.1386988127 0.0966893130 -0.0142287342
0.1388120277 0.0963277664 -0.0128072733
0.1398583809 0.0962808992 -0.0136546873
0.1387011278 0.0955845873 -0.0095417617
0.1399160688 0.0955845873 -0.0107567030
0.1388108052 0.0959528292 -0.0112145351
0.1473332327 0.0942254399 0.0112724842
0.1481354882 0.0940848385 0.0108504744
0.1487998571 0.0937969403 0.0099863591
0.1461670611 0.0947878457 0.0129605233
0.1470382598 0.0947208927 0.0127595663
0.1475399648 0.0943995179 0.0117949725
0.1496965166 0.0939442370 0.0104284646
0.1502919423 0.0935826905 0.0093432966
0.1489378412 0.0939911042 0.0105691345
0.1455011235 0.0953234703 0.0145681796
0.1464161952 0.0953033844 0.0145078925
0.1466553457 0.0950288768 0.0136839686
0.1455352013 0.0956716263 0.0156131562
0.1464690757 0.0956716263 0.0156131562
0.1463457810 0.0955243295 0.0151710507
0.1481276453 0.0953234703 0.0145681796
0.1483479930 0.0950288768 0.0136839686
0.1473062942 0.0953033844 0.0145078925
0.1499609258 0.0947878457 0.0129605233
0.1503999552 0.0943995179 0.0117949725
0.1494021293 0.0947208927 0.0127595663
0.1514189332 0.0942254399 0.0112724842
0.1519516832 0.0937969403 0.0099863591
0.1512727225 0.0940848385 0.0108504744
0.1514592853 0.0935826905 0.0093432966
0.1503677388 0.0939442370 0.0104284646
0.1509077325 0.0939911042 0.0105691345
0.1478970210 0.0946874161 0.0126590877
0.1486995693 0.0946874161 0.0126590877
0.1491574013 0.0943191742 0.0115538240
0.1565627300 0.0942254399 0.0106946561
0.1568316119 0.0940848385 0.0098289569
0.1566903566 0.0937969403 0.0087481561
0.1569317761 0.0947878457 0.0127128827
0.1574057267 0.0947208927 0.0119547343
0.1570783928 0.0943995179 0.0109179120
0.1576370499 0.0939442370 0.0084267030
0.1572907259 0.0935826905 0.0072383514
0.1572000369 0.0939911042 0.0090626542
0.1575977136 0.0953234703 0.0143205390
0.1582021624 0.0953033844 0.0136308320
0.1577886408 0.0950288768 0.0128791366
0.1583607614 0.0956716263 0.0150353281
0.1590211380 0.0956716263 0.0143749531
0.1586213191 0.0955243295 0.0141495332
0.1594550229 0.0953234703 0.0124632344
0.1589855734 0.0950288768 0.0116822070
0.1588315839 0.0953033844 0.0130014121
0.1596145561 0.0947878457 0.0100301094
0.1591007962 0.0943995179 0.0088955136
0.1590773050 0.0947208927 0.0102831601
0.1594518777 0.0942254399 0.0078055156
0.1589191277 0.0937969403 0.0065193906
0.1590500646 0.0940848385 0.0076105097
0.1581161966 0.0935826905 0.0064128827
0.1581116955 0.0939442370 0.0079520585
0.1585930189 0.0939911042 0.0076696757
0.1579419351 0.0946874161 0.0112764277
0.1585094463 0.0946874161 0.0107089179
0.1580516142 0.0943191742 0.0096036542
0.1694326464 0.0964750631 0.0036250156
0.1685685313 0.0961871649 0.0039231191
0.1681465216 0.0960465635 0.0050916406
0.1700757088 0.0966893130 0.0012672108
0.1689905410 0.0963277664 0.0011301054
0.1688498711 0.0962808992 0.0025713671
0.1666594397 0.0955511107 0.0037883633
0.1664584827 0.0954841577 0.0053920938
0.1676240333 0.0958724855 0.0039692441
0.1700757088 0.0966893130 -0.0012320080
0.1688498711 0.0962808992 -0.0016460646
0.1689905410 0.0963277664 -0.0003069455
0.1694326464 0.0964750631 -0.0031228752
0.1681465216 0.0960465635 -0.0036556252
0.1685685313 0.0961871649 -0.0027935315
0.1664584827 0.0954841577 -0.0027303674
0.1666594397 0.0955511107 -0.0012725549
0.1676240333 0.0958724855 -0.0021538420
0.1648508267 0.0949485331 -0.0008970861
0.1649111138 0.0949686190 0.0009398202
0.1657350375 0.0952431266 -0.0002184181
0.1638058503 0.0946003771 0.0012942343
0.1638058503 0.0946003771 0.0032936094
0.1642479557 0.0947476739 0.0021334121
0.1648508267 0.0949485331 0.0047261563
0.1657350375 0.0952431266 0.0034054492
0.1649111138 0.0949686190 0.0028454746
0.1678651817 0.0959528292 0.0008201503
0.1667599182 0.0955845873 0.0003623182
0.1667599182 0.0955845873 0.0020805312
0.1720583020 0.0979753595 -0.0050276409
0.1732103153 0.0988394746 -0.0061608851
0.1737729264 0.0992614843 -0.0077372660
0.1712009897 0.0973322971 -0.0020483361
0.1726477041 0.0984174649 -0.0029600119
0.1728352412 0.0985581348 -0.0045372268
0.1757554610 0.1007485662 -0.0078712073
0.1760233711 0.1009495232 -0.0096691566
0.1744694926 0.0997839725 -0.0071198382
0.1712009897 0.0973322971 0.0004508827
0.1728352412 0.0985581348 -0.0003197950
0.1726477041 0.0984174649 -0.0015229611
0.1720583020 0.0979753595 0.0017202499
0.1737729264 0.0992614843 0.0010099999
0.1732103153 0.0988394746 0.0005557655
0.1760233711 0.1009495232 -0.0015466954
0.1757554610 0.1007485662 -0.0028102892
0.1744694926 0.0997839725 -0.0009967521
0.1781666516 0.1025571792 -0.0049337267
0.1780862786 0.1024968921 -0.0067123674
0.1769878473 0.1016729684 -0.0047578322
0.1795597840 0.1036021556 -0.0081349846
0.1795597840 0.1036021556 -0.0101343597
0.1789703819 0.1031600502 -0.0085468811
0.1781666516 0.1025571792 -0.0105569691
0.1769878473 0.1016729684 -0.0083816995
0.1780862786 0.1024968921 -0.0086180218
0.1741480005 0.0995428241 -0.0037376818
0.1756215059 0.1006480877 -0.0043480529
0.1756215059 0.1006480877 -0.0060662659
0.1782407204 0.1060136396 -0.0177495156
0.1778821544 0.1051495245 -0.0164788692
0.1789442210 0.1047275148 -0.0146211408
0.1759242435 0.1066567020 -0.0212784295
0.1748553612 0.1055715342 -0.0203013240
0.1764814179 0.1054308643 -0.0184100468
0.1761304560 0.1032404330 -0.0146311447
0.1779028389 0.1030394760 -0.0124798753
0.1771519419 0.1042050266 -0.0154283146
0.1729015872 0.1066567020 -0.0243010855
0.1713806854 0.1054308643 -0.0235107788
0.1731173338 0.1055715342 -0.0220393512
0.1700795484 0.1060136396 -0.0259106869
0.1683649239 0.1047275148 -0.0252004369
0.1697587656 0.1051495245 -0.0246022573
0.1680792059 0.1030394760 -0.0223035074
0.1700095769 0.1032404330 -0.0207520231
0.1697464339 0.1042050266 -0.0228338218
0.1689585816 0.1014318200 -0.0183930389
0.1712303805 0.1014921071 -0.0162349062
0.1705152180 0.1023160308 -0.0185035037
0.1707392384 0.1003868436 -0.0146421719
0.1731573634 0.1003868436 -0.0122240471
0.1721220878 0.1008289490 -0.0140928731
0.1757595583 0.1014318200 -0.0115920628
0.1748980696 0.1023160308 -0.0141206525
0.1735351559 0.1014921071 -0.0139301310
0.1735439808 0.1044461750 -0.0194909393
0.1720704754 0.1033409115 -0.0188805682
0.1741485516 0.1033409115 -0.0168024922
0.1625202477 0.0979753595 -0.0183145152
0.1625335603 0.0988394746 -0.0199304155
0.1618167472 0.0992614843 -0.0214428900
0.1640206710 0.0973322971 -0.0156016560
0.1643990465 0.0984174649 -0.0172692692
0.1634164166 0.0985581348 -0.0185171188
0.1631239517 0.1007485662 -0.0229394486
0.1620420757 0.1009495232 -0.0244002102
0.1627458927 0.0997839725 -0.0214988510
0.1657878603 0.0973322971 -0.0138344687
0.1663985485 0.0985581348 -0.0155349901
0.1654151803 0.0984174649 -0.0162531365
0.1672916587 0.0979753595 -0.0135431094
0.1680019095 0.0992614843 -0.0152577343
0.1672828814 0.0988394746 -0.0151810995
0.1677854407 0.1009495232 -0.0186568513
0.1667025099 0.1007485662 -0.0193608942
0.1670755063 0.0997839725 -0.0171692420
0.1669060650 0.1025571792 -0.0225673198
0.1655915598 0.1024968921 -0.0237681576
0.1661968689 0.1016729684 -0.0216094136
0.1656275950 0.1036021556 -0.0258159993
0.1642138436 0.1036021556 -0.0272297492
0.1649195591 0.1031600502 -0.0256904837
0.1629298892 0.1025571792 -0.0265434914
0.1636344445 0.1016729684 -0.0241718353
0.1642440780 0.1024968921 -0.0251156380
0.1649100666 0.0995428241 -0.0188800153
0.1655204384 0.1006480877 -0.0203535211
0.1643054958 0.1006480877 -0.0215684624
0.1458106400 0.0937969403 0.0087481561
0.1456693840 0.0940848385 0.0098289569
0.1459382647 0.0942254399 0.0106946561
0.1452102731 0.0935826905 0.0072383514
0.1448639488 0.0939442370 0.0084267030
0.1453009603 0.0939911042 0.0090626542
0.1450952686 0.0947208927 0.0119547343
0.1455692176 0.0947878457 0.0127128827
0.1454226027 0.0943995179 0.0109179120
0.1443848046 0.0935826905 0.0064128827
0.1439079823 0.0939911042 0.0076696757
0.1443893044 0.0939442370 0.0079520585
0.1435818751 0.0937969403 0.0065193906
0.1430491251 0.0942254399 0.0078055156
0.1434509375 0.0940848385 0.0076105097
0.1428864452 0.0947878457 0.0100301094
0.1434236950 0.0947208927 0.0102831601
0.1434002050 0.0943995179 0.0088955136
0.1430459761 0.0953234703 0.0124632344
0.1436694133 0.0953033844 0.0130014121
0.1435154253 0.0950288768 0.0116822070
0.1434798585 0.0956716263 0.0143749531
0.1441402333 0.0956716263 0.0150353281
0.1438796768 0.0955243295 0.0141495332
0.1449032801 0.0953234703 0.0143205390
0.1447123545 0.0950288768 0.0128791366
0.1442988330 0.0953033844 0.0136308320
0.1444493843 0.0943191742 0.0096036542
0.1439915522 0.0946874161 0.0107089179
0.1445590618 0.0946874161 0.0112764277
0.1411066416 0.0937969403 0.0022931406
0.1402425265 0.0940848385 0.0029575098
0.1398205168 0.0942254399 0.0037597656
0.1417497040 0.0935826905 0.0008010547
0.1406645362 0.0939442370 0.0013964805
0.1405238663 0.0939911042 0.0021551562
0.1383334350 0.0947208927 0.0040547383
0.1381324780 0.0947878457 0.0049259375
0.1392980286 0.0943995179 0.0035530332
0.1417497040 0.0935826905 -0.0003662891
0.1405238663 0.0939911042 0.0001852636
0.1406645362 0.0939442370 0.0007252578
0.1411066416 0.0937969403 -0.0008586875
0.1398205168 0.0942254399 -0.0003259375
0.1402425265 0.0940848385 -0.0001797266
0.1381324780 0.0947878457 0.0011320703
0.1383334350 0.0947208927 0.0016908672
0.1392980286 0.0943995179 0.0006930410
0.1365248220 0.0953234703 0.0029653516
0.1365851091 0.0953033844 0.0037867032
0.1374090328 0.0950288768 0.0027450039
0.1354798456 0.0956716263 0.0046239219
0.1354798456 0.0956716263 0.0055577969
0.1359219510 0.0955243295 0.0047472168
0.1365248220 0.0953234703 0.0055918750
0.1374090328 0.0950288768 0.0044376524
0.1365851091 0.0953033844 0.0046768028
0.1395391770 0.0943191742 0.0019355957
0.1384339135 0.0946874161 0.0023934277
0.1384339135 0.0946874161 0.0031959766
0.1550330110 0.0964750631 -0.0183396401
0.1553311143 0.0961871649 -0.0174755249
0.1564996354 0.0960465635 -0.0170535152
0.1526752070 0.0966893130 -0.0189827026
0.1525381014 0.0963277664 -0.0178975347
0.1539793627 0.0962808992 -0.0177568648
0.1551963582 0.0955511107 -0.0155664333
0.1568000882 0.0954841577 -0.0153654762
0.1553772392 0.0958724855 -0.0165310269
0.1501759889 0.0966893130 -0.0189827026
0.1497619322 0.0962808992 -0.0177568648
0.1511010510 0.0963277664 -0.0178975347
0.1482851221 0.0964750631 -0.0183396401
0.1477523721 0.0960465635 -0.0170535152
0.1486144657 0.0961871649 -0.0174755249
0.1486776294 0.0954841577 -0.0153654762
0.1501354416 0.0955511107 -0.0155664333
0.1492541548 0.0958724855 -0.0165310269
0.1505109100 0.0949485331 -0.0137578201
0.1523478157 0.0949686190 -0.0138181072
0.1511895779 0.0952431266 -0.0146420310
0.1527022296 0.0946003771 -0.0127128436
0.1547016040 0.0946003771 -0.0127128436
0.1535414071 0.0947476739 -0.0131549490
0.1561341507 0.0949485331 -0.0137578201
0.1548134441 0.0952431266 -0.0146420310
0.1542534695 0.0949686190 -0.0138181072
0.1522281463 0.0959528292 -0.0167721754
0.1517703142 0.0955845873 -0.0156669118
0.1534885266 0.0955845873 -0.0156669118
0.1459382647 0.0942254399 -0.0110096561
0.1456693840 0.0940848385 -0.0101439569
0.1458106400 0.0937969403 -0.0090631562
0.1455692176 0.0947878457 -0.0130278826
0.1450952686 0.0947208927 -0.0122697342
0.1454226027 0.0943995179 -0.0112329120
0.1448639488 0.0939442370 -0.0087417031
0.1452102731 0.0935826905 -0.0075533516
0.1453009603 0.0939911042 -0.0093776542
0.1449032801 0.0953234703 -0.0146355388
0.1442988330 0.0953033844 -0.0139458317
0.1447123545 0.0950288768 -0.0131941365
0.1441402333 0.0956716263 -0.0153503278
0.1434798585 0.0956716263 -0.0146899528
0.1438796768 0.0955243295 -0.0144645329
0.1430459761 0.0953234703 -0.0127782341
0.1435154253 0.0950288768 -0.0119972068
0.1436694133 0.0953033844 -0.0133164118
0.1428864452 0.0947878457 -0.0103451092
0.1434002050 0.0943995179 -0.0092105136
0.1434236950 0.0947208927 -0.0105981600
0.1430491251 0.0942254399 -0.0081205155
0.1435818751 0.0937969403 -0.0068343906
0.1434509375 0.0940848385 -0.0079255097
0.1443848046 0.0935826905 -0.0067278828
0.1443893044 0.0939442370 -0.0082670586
0.1439079823 0.0939911042 -0.0079846757
0.1445590618 0.0946874161 -0.0115914276
0.1439915522 0.0946874161 -0.0110239178
0.1444493843 0.0943191742 -0.0099186542
0.1500831535 0.0934220031 0.0068882029
0.1504041728 0.0934220031 0.0053733767
0.1500831535 0.0934220031 0.0046335779
0.1508419265 0.0934220031 0.0080155154
0.1514839651 0.0934220031 0.0061131755
0.1508857018 0.0934220031 0.0058665759
0.1514839651 0.0934220031 0.0020266678
0.1508419265 0.0934220031 0.0016743826
0.1508857018 0.0934220031 0.0037176365
0.1520092695 0.0934220031 0.0080155154
0.1528555931 0.0934220031 0.0058665759
0.1521551873 0.0934220031 0.0061131755
0.1532349796 0.0934220031 0.0068882029
0.1541688540 0.0934220031 0.0046335779
0.1535414071 0.0934220031 0.0053733767
0.1546357912 0.0934220031 0.0016743826
0.1538478347 0.0934220031 0.0020266678
0.1537456922 0.0934220031 0.0037176365
0.1546357912 0.0934220031 -0.0011438986
0.1537456922 0.0934220031 -0.0010382130
0.1538478347 0.0934220031 0.0004061561
0.1541688540 0.0934220031 -0.0029757814
0.1532349796 0.0934220031 -0.0029757814
0.1535414071 0.0934220031 -0.0022007540
0.1520092695 0.0934220031 -0.0011438986
0.1521551873 0.0934220031 0.0004061561
0.1528555931 0.0934220031 -0.0010382130
0.1522281463 0.0934220031 0.0041403787
0.1530306946 0.0934220031 0.0022028104
0.1522281463 0.0934220031 0.0022028104
0.1596911775 0.0934220031 0.0024048125
0.1592474870 0.0934220031 0.0031549296
0.1590308009 0.0934220031 0.0039990624
0.1600213659 0.0934220031 0.0008489140
0.1594641731 0.0934220031 0.0015520234
0.1593919444 0.0934220031 0.0023246581
0.1582672404 0.0934220031 0.0044416014
0.1581640566 0.0934220031 0.0053327421
0.1587625229 0.0934220031 0.0038441776
0.1600213659 0.0934220031 -0.0003184297
0.1593919444 0.0934220031 0.0003547655
0.1594641731 0.0934220031 0.0008808007
0.1596911775 0.0934220031 -0.0007470157
0.1590308009 0.0934220031 -0.0000866407
0.1592474870 0.0934220031 0.0000176933
0.1581640566 0.0934220031 0.0015388748
0.1582672404 0.0934220031 0.0020777303
0.1587625229 0.0934220031 0.0009841854
0.1573385858 0.0934220031 0.0035316873
0.1573695410 0.0934220031 0.0043470565
0.1577925947 0.0934220031 0.0032235975
0.1568020298 0.0934220031 0.0052939529
0.1568020298 0.0934220031 0.0062278279
0.1570290343 0.0934220031 0.0053733768
0.1573385858 0.0934220031 0.0061582108
0.1577925947 0.0934220031 0.0049162460
0.1573695410 0.0934220031 0.0052371561
0.1588863435 0.0934220031 0.0022028104
0.1583188324 0.0934220031 0.0027703202
0.1583188324 0.0934220031 0.0035728690
0.1613943663 0.0937969403 -0.0026081407
0.1622584814 0.0940848385 -0.0032725099
0.1626804911 0.0942254399 -0.0040747658
0.1607513039 0.0935826905 -0.0011160547
0.1618364717 0.0939442370 -0.0017114806
0.1619771416 0.0939911042 -0.0024701564
0.1641675729 0.0947208927 -0.0043697385
0.1643685299 0.0947878457 -0.0052409377
0.1632029793 0.0943995179 -0.0038680334
0.1607513039 0.0935826905 0.0000512890
0.1619771416 0.0939911042 -0.0005002638
0.1618364717 0.0939442370 -0.0010402579
0.1613943663 0.0937969403 0.0005436874
0.1626804911 0.0942254399 0.0000109374
0.1622584814 0.0940848385 -0.0001352735
0.1643685299 0.0947878457 -0.0014470705
0.1641675729 0.0947208927 -0.0020058673
0.1632029793 0.0943995179 -0.0010080411
0.1659761859 0.0953234703 -0.0032803518
0.1659158988 0.0953033844 -0.0041017034
0.1650919751 0.0950288768 -0.0030600041
0.1670211623 0.0956716263 -0.0049389221
0.1670211623 0.0956716263 -0.0058727972
0.1665790569 0.0955243295 -0.0050622171
0.1659761859 0.0953234703 -0.0059068752
0.1650919751 0.0950288768 -0.0047526526
0.1659158988 0.0953033844 -0.0049918030
0.1629618309 0.0943191742 -0.0022505958
0.1640670944 0.0946874161 -0.0027084279
0.1640670944 0.0946874161 -0.0035109767
0.1667818625 0.0964750631 -0.0103396251
0.1663816346 0.0961871649 -0.0095177970
0.1669094891 0.0960465635 -0.0083931252
0.1655693762 0.0966893130 -0.0124615469
0.1647051070 0.0963277664 -0.0117911406
0.1656247507 0.0962808992 -0.0106725587
0.1649364302 0.0955511107 -0.0082631095
0.1659283260 0.0954841577 -0.0069870158
0.1657463948 0.0958724855 -0.0088173009
0.1638021870 0.0966893130 -0.0142287342
0.1626426188 0.0962808992 -0.0136546873
0.1636889732 0.0963277664 -0.0128072733
0.1620104515 0.0964750631 -0.0151110310
0.1607243267 0.0960465635 -0.0145782809
0.1616323135 0.0961871649 -0.0142671130
0.1601849609 0.0954841577 -0.0127303747
0.1613578720 0.0955511107 -0.0118416639
0.1614167811 0.0958724855 -0.0131469099
0.1603444942 0.0949485331 -0.0102972498
0.1616859935 0.0949686190 -0.0090410117
0.1614496036 0.0952431266 -0.0104426171
0.1611550665 0.0946003771 -0.0080088437
0.1625688178 0.0946003771 -0.0065950938
0.1620610590 0.0947476739 -0.0077280899
0.1643206700 0.0949485331 -0.0063210783
0.1640120280 0.0952431266 -0.0078801954
0.1630334753 0.0949686190 -0.0076935313
0.1636901972 0.0959528292 -0.0112145351
0.1625849337 0.0955845873 -0.0107567030
0.1637998763 0.0955845873 -0.0095417617
0.1440480314 0.0934220031 0.0034212343
0.1442750352 0.0934220031 0.0021334121
0.1440480314 0.0934220031 0.0011666093
0.1445845859 0.0934220031 0.0050851015
0.1450385936 0.0934220031 0.0036367694
0.1446155410 0.0934220031 0.0029671171
0.1450385936 0.0934220031 -0.0004497383
0.1445845859 0.0934220031 -0.0012560313
0.1446155410 0.0934220031 0.0008181777
0.1454100544 0.0934220031 0.0059105702
0.1460085190 0.0934220031 0.0043600955
0.1455132379 0.0934220031 0.0041114139
0.1462767962 0.0934220031 0.0056499998
0.1469371710 0.0934220031 0.0040557498
0.1464934817 0.0934220031 0.0043518592
0.1472673584 0.0934220031 0.0014267420
0.1467101672 0.0934220031 0.0012218358
0.1466379387 0.0934220031 0.0028405760
0.1472673584 0.0934220031 -0.0013915392
0.1466379387 0.0934220031 -0.0019152735
0.1467101672 0.0934220031 -0.0003986759
0.1469371710 0.0934220031 -0.0035536095
0.1462767962 0.0934220031 -0.0042139844
0.1464934817 0.0934220031 -0.0032222716
0.1454100544 0.0934220031 -0.0032488438
0.1455132379 0.0934220031 -0.0015956055
0.1460085190 0.0934220031 -0.0025446934
0.1455648297 0.0934220031 0.0021902089
0.1461323393 0.0934220031 0.0008201503
0.1455648297 0.0934220031 0.0002526405
0.1428098287 0.0934220031 -0.0027198125
0.1432535180 0.0934220031 -0.0034699297
0.1434702035 0.0934220031 -0.0043140626
0.1424796414 0.0934220031 -0.0011639141
0.1430368326 0.0934220031 -0.0018670235
0.1431090611 0.0934220031 -0.0026396582
0.1442337618 0.0934220031 -0.0047566016
0.1443369454 0.0934220031 -0.0056477422
0.1437384808 0.0934220031 -0.0041591778
0.1424796414 0.0934220031 0.0000034297
0.1431090611 0.0934220031 -0.0006697656
0.1430368326 0.0934220031 -0.0011958008
0.1428098287 0.0934220031 0.0004320156
0.1434702035 0.0934220031 -0.0002283594
0.1432535180 0.0934220031 -0.0003326934
0.1443369454 0.0934220031 -0.0018538750
0.1442337618 0.0934220031 -0.0023927305
0.1437384808 0.0934220031 -0.0012991856
0.1451624138 0.0934220031 -0.0038466875
0.1451314588 0.0934220031 -0.0046620567
0.1447084062 0.0934220031 -0.0035385977
0.1456989683 0.0934220031 -0.0056089531
0.1456989683 0.0934220031 -0.0065428282
0.1454719645 0.0934220031 -0.0056883770
0.1451624138 0.0934220031 -0.0064732110
0.1447084062 0.0934220031 -0.0052312461
0.1451314588 0.0934220031 -0.0055521563
0.1436146605 0.0934220031 -0.0025178106
0.1441821700 0.0934220031 -0.0030853203
0.1441821700 0.0934220031 -0.0038878692
0.1487998571 0.0937969403 -0.0103013593
0.1481354882 0.0940848385 -0.0111654745
0.1473332327 0.0942254399 -0.0115874843
0.1502919423 0.0935826905 -0.0096582969
0.1496965166 0.0939442370 -0.0107434648
0.1489378412 0.0939911042 -0.0108841347
0.1470382598 0.0947208927 -0.0130745662
0.1461670611 0.0947878457 -0.0132755232
0.1475399648 0.0943995179 -0.0121099725
0.1514592853 0.0935826905 -0.0096582969
0.1509077325 0.0939911042 -0.0108841347
0.1503677388 0.0939442370 -0.0107434648
0.1519516832 0.0937969403 -0.0103013593
0.1514189332 0.0942254399 -0.0115874843
0.1512727225 0.0940848385 -0.0111654745
0.1499609258 0.0947878457 -0.0132755232
0.1494021293 0.0947208927 -0.0130745662
0.1503999552 0.0943995179 -0.0121099725
0.1481276453 0.0953234703 -0.0148831794
0.1473062942 0.0953033844 -0.0148228923
0.1483479930 0.0950288768 -0.0139989685
0.1464690757 0.0956716263 -0.0159281559
0.1455352013 0.0956716263 -0.0159281559
0.1463457810 0.0955243295 -0.0154860504
0.1455011235 0.0953234703 -0.0148831794
0.1466553457 0.0950288768 -0.0139989685
0.1464161952 0.0953033844 -0.0148228923
0.1491574013 0.0943191742 -0.0118688241
0.1486995693 0.0946874161 -0.0129740877
0.1478970210 0.0946874161 -0.0129740877
0.1566903566 0.0937969403 -0.0090631562
0.1568316119 0.0940848385 -0.0101439569
0.1565627300 0.0942254399 -0.0110096561
0.1572907259 0.0935826905 -0.0075533516
0.1576370499 0.0939442370 -0.0087417031
0.1572000369 0.0939911042 -0.0093776542
0.1574057267 0.0947208927 -0.0122697342
0.1569317761 0.0947878457 -0.0130278826
0.1570783928 0.0943995179 -0.0112329120
0.1581161966 0.0935826905 -0.0067278828
0.1585930189 0.0939911042 -0.0079846757
0.1581116955 0.0939442370 -0.0082670586
0.1589191277 0.0937969403 -0.0068343906
0.1594518777 0.0942254399 -0.0081205155
0.1590500646 0.0940848385 -0.0079255097
0.1596145561 0.0947878457 -0.0103451092
0.1590773050 0.0947208927 -0.0105981600
0.1591007962 0.0943995179 -0.0092105136
0.1594550229 0.0953234703 -0.0127782341
0.1588315839 0.0953033844 -0.0133164118
0.1589855734 0.0950288768 -0.0119972068
0.1590211380 0.0956716263 -0.0146899528
0.1583607614 0.0956716263 -0.0153503278
0.1586213191 0.0955243295 -0.0144645329
0.1575977136 0.0953234703 -0.0146355388
0.1577886408 0.0950288768 -0.0131941365
0.1582021624 0.0953033844 -0.0139458317
0.1580516142 0.0943191742 -0.0099186542
0.1585094463 0.0946874161 -0.0110239178
0.1579419351 0.0946874161 -0.0115914276
0.1555638236 0.0934220031 -0.0043707501
0.1560075142 0.0934220031 -0.0046668595
0.1562242003 0.0934220031 -0.0059650001
0.1552336353 0.0934220031 -0.0017417423
0.1557908281 0.0934220031 -0.0015368361
0.1558630568 0.0934220031 -0.0031555763
0.1569877607 0.0934220031 -0.0044264141
0.1570909446 0.0934220031 -0.0062255704
0.1564924783 0.0934220031 -0.0046750958
0.1552336353 0.0934220031 0.0010765389
0.1558630568 0.0934220031 0.0016002733
0.1557908281 0.0934220031 0.0000836756
0.1555638236 0.0934220031 0.0032386092
0.1562242003 0.0934220031 0.0038989842
0.1560075142 0.0934220031 0.0029072713
0.1570909446 0.0934220031 0.0029338436
0.1569877607 0.0934220031 0.0012806053
0.1564924783 0.0934220031 0.0022296932
0.1579164154 0.0934220031 0.0009410311
0.1578854602 0.0934220031 -0.0011331779
0.1574624064 0.0934220031 0.0001347381
0.1584529714 0.0934220031 -0.0014816095
0.1584529714 0.0934220031 -0.0037362345
0.1582259669 0.0934220031 -0.0024484122
0.1579164154 0.0934220031 -0.0054001016
0.1574624064 0.0934220031 -0.0039517696
0.1578854602 0.0934220031 -0.0032821173
0.1563686577 0.0934220031 -0.0011351505
0.1569361688 0.0934220031 -0.0005676408
0.1569361688 0.0934220031 -0.0025052091
0.1483321390 0.0934220031 -0.0049485782
0.1489595859 0.0934220031 -0.0056883770
0.1492660134 0.0934220031 -0.0072032032
0.1478652018 0.0934220031 -0.0019893829
0.1486531583 0.0934220031 -0.0023416681
0.1487553008 0.0934220031 -0.0040326368
0.1503458057 0.0934220031 -0.0064281758
0.1504917236 0.0934220031 -0.0083305157
0.1496453999 0.0934220031 -0.0061815762
0.1478652018 0.0934220031 0.0008288983
0.1487553008 0.0934220031 0.0007232127
0.1486531583 0.0934220031 -0.0007211564
0.1483321390 0.0934220031 0.0026607811
0.1492660134 0.0934220031 0.0026607811
0.1489595859 0.0934220031 0.0018857537
0.1504917236 0.0934220031 0.0008288983
0.1503458057 0.0934220031 -0.0007211564
0.1496453999 0.0934220031 0.0007232127
0.1516590666 0.0934220031 -0.0019893829
0.1516152912 0.0934220031 -0.0040326368
0.1510170279 0.0934220031 -0.0023416681
0.1524178395 0.0934220031 -0.0049485782
0.1524178395 0.0934220031 -0.0072032032
0.1520968202 0.0934220031 -0.0056883770
0.1516590666 0.0934220031 -0.0083305157
0.1510170279 0.0934220031 -0.0064281758
0.1516152912 0.0934220031 -0.0061815762
0.1494702984 0.0934220031 -0.0025178107
0.1502728467 0.0934220031 -0.0025178107
0.1502728467 0.0934220031 -0.0044553790
0.1456439409 0.1047275148 0.0296520778
0.1470525737 0.1051495245 0.0302146891
0.1463541917 0.1060136396 0.0313667027
0.1474903845 0.1030394760 0.0274016325
0.1499525247 0.1032404330 0.0276695427
0.1482943559 0.1042050266 0.0289555114
0.1512398543 0.1055715342 0.0307773004
0.1494879649 0.1066567020 0.0322240152
0.1489713137 0.1054308643 0.0305897633
0.1508774138 0.1014318200 0.0252583514
0.1540099678 0.1014921071 0.0253387244
0.1519000666 0.1023160308 0.0264371560
0.1547889200 0.1003868436 0.0238652186
0.1582087942 0.1003868436 0.0238652186
0.1561552149 0.1008289490 0.0244546209
0.1604958101 0.1014318200 0.0252583514
0.1580985886 0.1023160308 0.0264371560
0.1572695355 0.1014921071 0.0253387244
0.1613836236 0.1030394760 0.0274016325
0.1587677208 0.1042050266 0.0289555114
0.1586090814 0.1032404330 0.0276695427
0.1606058907 0.1047275148 0.0296520778
0.1578962673 0.1060136396 0.0313667027
0.1585412137 0.1051495245 0.0302146891
0.1537628077 0.1066567020 0.0322240152
0.1536978889 0.1055715342 0.0307773004
0.1561851109 0.1054308643 0.0305897633
0.1527332254 0.1033409115 0.0278034978
0.1556721798 0.1033409115 0.0278034978
0.1533435972 0.1044461750 0.0292770036
0.1317617687 0.1003868436 0.0143271718
0.1303789186 0.1008289490 0.0137778730
0.1293436427 0.1003868436 0.0119090469
0.1335424259 0.1014318200 0.0180780389
0.1319857888 0.1023160308 0.0181885038
0.1312706262 0.1014921071 0.0159199062
0.1276029354 0.1023160308 0.0138056523
0.1267414466 0.1014318200 0.0112770625
0.1289658499 0.1014921071 0.0136151308
0.1344218017 0.1030394760 0.0219885076
0.1327545727 0.1042050266 0.0225188220
0.1324914298 0.1032404330 0.0204370232
0.1341360832 0.1047275148 0.0248854372
0.1324214578 0.1060136396 0.0255956872
0.1327422409 0.1051495245 0.0242872575
0.1295994177 0.1066567020 0.0239860857
0.1293836713 0.1055715342 0.0217243514
0.1311203204 0.1054308643 0.0231957791
0.1265767603 0.1066567020 0.0209634295
0.1260195859 0.1054308643 0.0180950468
0.1276456433 0.1055715342 0.0199863241
0.1242602826 0.1060136396 0.0174345156
0.1235567820 0.1047275148 0.0143061406
0.1246188490 0.1051495245 0.0161638691
0.1245981649 0.1030394760 0.0121648750
0.1263705484 0.1032404330 0.0143161445
0.1253490619 0.1042050266 0.0151133144
0.1304305306 0.1033409115 0.0185655682
0.1289570244 0.1044461750 0.0191759393
0.1283524536 0.1033409115 0.0164874921
0.1272277825 0.1003868436 -0.0036959222
0.1266383800 0.1008289490 -0.0050622171
0.1272277825 0.1003868436 -0.0071157972
0.1258346494 0.1014318200 0.0002155857
0.1246558444 0.1023160308 -0.0008070666
0.1257542763 0.1014921071 -0.0029169690
0.1246558444 0.1023160308 -0.0070055902
0.1258346494 0.1014318200 -0.0094028129
0.1257542763 0.1014921071 -0.0061765374
0.1236913676 0.1030394760 0.0036026170
0.1221374884 0.1042050266 0.0027986463
0.1234234574 0.1032404330 0.0011404764
0.1214409218 0.1047275148 0.0054490624
0.1197262964 0.1060136396 0.0047388124
0.1208783103 0.1051495245 0.0040404296
0.1188689837 0.1066567020 0.0016050389
0.1203156989 0.1055715342 -0.0001468517
0.1205032360 0.1054308643 0.0021216893
0.1188689837 0.1066567020 -0.0026698049
0.1205032360 0.1054308643 -0.0050921096
0.1203156989 0.1055715342 -0.0026048869
0.1197262964 0.1060136396 -0.0068032659
0.1214409218 0.1047275148 -0.0095128909
0.1208783103 0.1051495245 -0.0074482132
0.1236913676 0.1030394760 -0.0102906254
0.1234234574 0.1032404330 -0.0075160823
0.1221374884 0.1042050266 -0.0076747210
0.1232895023 0.1033409115 -0.0016402248
0.1218159961 0.1044461750 -0.0022505959
0.1232895023 0.1033409115 -0.0045791800
0.1341360832 0.1047275148 -0.0252004369
0.1327422409 0.1051495245 -0.0246022573
0.1324214578 0.1060136396 -0.0259106869
0.1344218017 0.1030394760 -0.0223035074
0.1324914298 0.1032404330 -0.0207520231
0.1327545727 0.1042050266 -0.0228338218
0.1293836713 0.1055715342 -0.0220393512
0.1295994177 0.1066567020 -0.0243010855
0.1311203204 0.1054308643 -0.0235107788
0.1335424259 0.1014318200 -0.0183930389
0.1312706262 0.1014921071 -0.0162349062
0.1319857888 0.1023160308 -0.0185035037
0.1317617687 0.1003868436 -0.0146421719
0.1293436427 0.1003868436 -0.0122240471
0.1303789186 0.1008289490 -0.0140928731
0.1267414466 0.1014318200 -0.0115920628
0.1276029354 0.1023160308 -0.0141206525
0.1289658499 0.1014921071 -0.0139301310
0.1245981649 0.1030394760 -0.0124798753
0.1253490619 0.1042050266 -0.0154283146
0.1263705484 0.1032404330 -0.0146311447
0.1235567820 0.1047275148 -0.0146211408
0.1242602826 0.1060136396 -0.0177495156
0.1246188490 0.1051495245 -0.0164788692
0.1265767603 0.1066567020 -0.0212784295
0.1276456433 0.1055715342 -0.0203013240
0.1260195859 0.1054308643 -0.0184100468
0.1304305306 0.1033409115 -0.0188805682
0.1283524536 0.1033409115 -0.0168024922
0.1289570244 0.1044461750 -0.0194909393
0.1524179978 0.0992614843 0.0223649218
0.1519637633 0.0988394746 0.0218023105
0.1531282468 0.0979753595 0.0206502969
0.1498613043 0.1009495232 0.0246153670
0.1485977108 0.1007485662 0.0243474569
0.1504112468 0.0997839725 0.0230614882
0.1498850370 0.0984174649 0.0212396992
0.1518588795 0.0973322971 0.0197929844
0.1510882028 0.0985581348 0.0214272363
0.1464742750 0.1025571792 0.0267586482
