-0.0004205313 0.1834775592 0.0384873933
-0.0004093906 0.1835826711 0.0374929807
-0.0010894688 0.1837410465 0.0365253967
-0.0012047031 0.1839219559 0.0349162650
-0.0008481094 0.1837554777 0.0362062166
-0.0018782695 0.1838293026 0.0365877282
-0.0022277422 0.1839789098 0.0362929118
-0.0023997539 0.1841549854 0.0349785974
-0.0017344961 0.1836022136 0.0385984508
-0.0021392812 0.1837435709 0.0386214001
-0.0021334492 0.1838299748 0.0376116325
-0.0027817500 0.1841448121 0.0366389510
-0.0028984492 0.1843291376 0.0350068709
-0.0025548086 0.1840931265 0.0363114548
0.0015986406 0.1839625874 0.0364567503
0.0012348515 0.1839325517 0.0361541405
0.0010605547 0.1840646363 0.0348493276
0.0017406093 0.1837376049 0.0384491259
0.0013177578 0.1836570382 0.0384588912
0.0013279609 0.1837849983 0.0374608284
0.0006548359 0.1837827625 0.0364785463
0.0005396016 0.1839653781 0.0348613583
0.0008931875 0.1838674538 0.0361620308
0.0021032813 0.1844080197 0.0348323477
0.0021221406 0.1842247475 0.0361396918
0.0018317969 0.1840393687 0.0364529536
0.0025797188 0.1846372152 0.0348281369
0.0026949531 0.1844545996 0.0364453249
0.0024346094 0.1843750640 0.0361369302
0.0023604844 0.1840004216 0.0384419113
0.0019737656 0.1838143863 0.0384453292
0.0022152500 0.1840771940 0.0374463797
-0.0068864221 0.1883957002 -0.0001193590
-0.0067361056 0.1880834267 0.0050785181
-0.0067003869 0.1880092231 0.0270429950
-0.0068864221 0.1883957002 -0.0336179688
-0.0067003869 0.1880092231 -0.0336460449
-0.0067361056 0.1880834267 -0.0168913494
-0.0064711915 0.1875330834 -0.0001820248
-0.0064711915 0.1875330834 0.0270084052
-0.0065857892 0.1877711533 0.0050558326
-0.0060970000 0.1868306212 -0.0001981265
-0.0058697500 0.1865686541 0.0049945570
-0.0058157500 0.1865064045 0.0269363951
-0.0060970000 0.1868306212 -0.0336621465
-0.0058157500 0.1865064045 -0.0336899789
-0.0058697500 0.1865686541 -0.0169526250
-0.0054692501 0.1861069696 -0.0002602483
-0.0054692501 0.1861069696 0.0269021057
-0.0056425000 0.1863066871 0.0049720684
0.0060192891 0.1891319240 -0.0415721681
0.0059050723 0.1888034774 -0.0467731369
0.0058779317 0.1887254308 -0.0686605474
0.0060192891 0.1891319240 -0.0081992848
0.0058779317 0.1887254308 -0.0081992848
0.0059050723 0.1888034774 -0.0248857265
0.0057037793 0.1882246311 -0.0415721681
0.0057037793 0.1882246311 -0.0686605474
0.0057908555 0.1884750309 -0.0467731369
0.0054113204 0.1874821148 -0.0415954374
0.0052158302 0.1871962761 -0.0467929375
0.0051693771 0.1871283541 -0.0686657504
0.0054113204 0.1874821148 -0.0082448116
0.0051693771 0.1871283541 -0.0082448116
0.0052158302 0.1871962761 -0.0249201245
0.0048713029 0.1866925209 -0.0415954374
0.0048713029 0.1866925209 -0.0686657504
0.0050203400 0.1869104375 -0.0467929375
0.0043962033 0.1860539945 -0.0369446471
0.0041330509 0.1858267457 -0.0214987780
0.0040705197 0.1857727460 -0.0369446471
0.0043962033 0.1860539945 -0.0060529088
0.0040705197 0.1857727460 0.0190215540
0.0041330509 0.1858267457 -0.0012386120
0.0036692774 0.1854262478 0.0190215540
0.0036692774 0.1854262478 -0.0060529088
0.0038698986 0.1855994969 -0.0012386120
0.0035754806 0.1853452482 0.0268135150
0.0035129493 0.1852912485 0.0284141285
0.0032497969 0.1850639997 0.0287944723
0.0039767228 0.1856917464 0.0268135150
0.0039767228 0.1856917464 0.0287944723
0.0037761017 0.1855184973 0.0284141285
0.0035754806 0.1853452482 0.0312350116
0.0032497969 0.1850639997 0.0312350116
0.0035129493 0.1852912485 0.0300147419
-0.0049236251 0.1855263243 0.0320200505
-0.0046364063 0.1853308337 0.0323942771
-0.0045681563 0.1852843805 0.0340537420
-0.0049236251 0.1855263243 0.0294820581
-0.0045681563 0.1852843805 0.0294556910
-0.0046364063 0.1853308337 0.0307297496
-0.0041302187 0.1849863058 0.0319611990
-0.0041302187 0.1849863058 0.0340212577
-0.0043491875 0.1851353432 0.0323729724
-0.0054711330 0.1951860009 -0.0369446471
-0.0052077834 0.1954132497 -0.0214987780
-0.0051452053 0.1954672494 -0.0369446471
-0.0054711330 0.1951860009 -0.0060529088
-0.0051452053 0.1954672494 0.0190215540
-0.0052077834 0.1954132497 -0.0012386120
-0.0047436622 0.1958137476 0.0190215540
-0.0047436622 0.1958137476 -0.0060529088
-0.0049444338 0.1956404985 -0.0012386120
-0.0055650002 0.1951050013 -0.0054207995
-0.0055650002 0.1951050013 0.0011669151
-0.0055650002 0.1951050013 0.0218484874
-0.0055650002 0.1951050013 -0.0363125378
-0.0055650002 0.1951050013 -0.0341177138
-0.0055650002 0.1951050013 -0.0190932509
-0.0055650002 0.1951050013 -0.0005219524
-0.0055650002 0.1951050013 0.0245525105
-0.0055650002 0.1951050013 0.0029403329
-0.0062436914 0.1941116413 -0.0005508673
-0.0062900976 0.1940437192 0.0029184861
-0.0064853905 0.1937578806 0.0245235956
-0.0059459181 0.1945474745 -0.0341324926
-0.0059459181 0.1945474745 -0.0363158424
-0.0060948047 0.1943295579 -0.0191058266
-0.0062436914 0.1941116413 -0.0054241041
-0.0064853905 0.1937578806 0.0218337086
-0.0062900976 0.1940437192 0.0011543394
-0.0069526172 0.1925145646 -0.0005920876
-0.0069798047 0.1924365179 0.0028873418
-0.0070942188 0.1921080714 0.0244823753
-0.0067781640 0.1930153642 -0.0341535607
-0.0067781640 0.1930153642 -0.0363205533
-0.0068653906 0.1927649644 -0.0191237541
-0.0069526172 0.1925145646 -0.0054288150
-0.0070942188 0.1921080714 0.0218126404
-0.0069798047 0.1924365179 0.0011364119
-0.0065549999 0.1936559975 -0.0054241041
-0.0065549999 0.1936559975 0.0011543394
-0.0065549999 0.1936559975 0.0218337086
-0.0065549999 0.1936559975 -0.0363158424
-0.0065549999 0.1936559975 -0.0341324926
-0.0065549999 0.1936559975 -0.0191058266
-0.0065549999 0.1936559975 -0.0005508673
-0.0065549999 0.1936559975 0.0245235956
-0.0065549999 0.1936559975 0.0029184861
-0.0072275488 0.1907899205 -0.0006499198
-0.0072338769 0.1907077953 0.0028436464
-0.0072605078 0.1903621851 0.0244245431
-0.0071869434 0.1913168904 -0.0341831194
-0.0071869434 0.1913168904 -0.0363271626
-0.0072072461 0.1910534055 -0.0191489066
-0.0072275488 0.1907899205 -0.0054354244
-0.0072605078 0.1903621851 0.0217830818
-0.0072338769 0.1907077953 0.0011112595
-0.0071350001 0.1919910014 -0.0054288150
-0.0071350001 0.1919910014 0.0011364119
-0.0071350001 0.1919910014 0.0218126404
-0.0071350001 0.1919910014 -0.0363205533
-0.0071350001 0.1919910014 -0.0341535607
-0.0071350001 0.1919910014 -0.0191237541
-0.0071350001 0.1919910014 -0.0005920876
-0.0071350001 0.1919910014 0.0244823753
-0.0071350001 0.1919910014 0.0028873418
-0.0070437697 0.1890516358 -0.0007206716
-0.0070283009 0.1889704487 0.0027901895
-0.0069632033 0.1886287862 0.0243537913
-0.0071430274 0.1895725864 -0.0342192814
-0.0071430274 0.1895725864 -0.0363352486
-0.0070933985 0.1893121111 -0.0191796780
-0.0070437697 0.1890516358 -0.0054435103
-0.0069632033 0.1886287862 0.0217469198
-0.0070283009 0.1889704487 0.0010804881
-0.0072699999 0.1902389973 -0.0054354244
-0.0072699999 0.1902389973 0.0011112595
-0.0072699999 0.1902389973 0.0217830818
-0.0072699999 0.1902389973 -0.0363271626
-0.0072699999 0.1902389973 -0.0341831194
-0.0072699999 0.1902389973 -0.0191489066
-0.0072699999 0.1902389973 -0.0006499198
-0.0072699999 0.1902389973 0.0244245431
-0.0072699999 0.1902389973 0.0028436464
-0.0017888125 0.1840165104 0.0318843823
-0.0014432031 0.1839898786 0.0322570305
-0.0013610781 0.1839835503 0.0338785226
-0.0017888125 0.1840165104 0.0294071478
-0.0013610781 0.1839835503 0.0293905459
-0.0014432031 0.1839898786 0.0306323507
-0.0008341094 0.1839429435 0.0318473268
-0.0008341094 0.1839429435 0.0338580691
-0.0010975938 0.1839632469 0.0322436161
-0.0034534218 0.1845642915 0.0319469958
-0.0031263554 0.1844500748 0.0323189216
-0.0030486367 0.1844229342 0.0339577381
-0.0034534218 0.1845642915 0.0294414878
-0.0030486367 0.1844229342 0.0294185386
-0.0031263554 0.1844500748 0.0306756988
-0.0025499414 0.1842487820 0.0318957730
-0.0025499414 0.1842487820 0.0339294646
-0.0027992890 0.1843358581 0.0323003786
-0.0000382187 0.1839142016 0.0318397331
0.0003034453 0.1839792994 0.0322147177
0.0003846328 0.1839947682 0.0338241082
-0.0000382187 0.1839142016 0.0293829522
0.0003846328 0.1839947682 0.0293731869
0.0003034453 0.1839792994 0.0306034523
0.0009055859 0.1840940264 0.0318179370
0.0009055859 0.1840940264 0.0338120774
0.0006451094 0.1840443973 0.0322068274
0.0016833750 0.1842745777 0.0318141403
0.0019958437 0.1844248942 0.0321923787
0.0020700938 0.1844606130 0.0337950975
0.0016833750 0.1842745777 0.0293693902
0.0020700938 0.1844606130 0.0293659723
0.0019958437 0.1844248942 0.0305890036
0.0025465313 0.1846898085 0.0318065116
0.0025465313 0.1846898085 0.0337908867
0.0023083125 0.1845752107 0.0321896170
-0.0064176134 0.1874217780 -0.0007914234
-0.0063818946 0.1873475745 0.0027367326
-0.0062315782 0.1870353010 0.0242830395
-0.0066468087 0.1878979178 -0.0342554434
-0.0066468087 0.1878979178 -0.0363433345
-0.0065322110 0.1876598479 -0.0192104494
-0.0064176134 0.1874217780 -0.0054515962
-0.0062315782 0.1870353010 0.0217107577
-0.0063818946 0.1873475745 0.0010497166
-0.0069400002 0.1885070056 -0.0054435103
-0.0069400002 0.1885070056 0.0010804881
-0.0069400002 0.1885070056 0.0217469198
-0.0069400002 0.1885070056 -0.0363352486
-0.0069400002 0.1885070056 -0.0342192814
-0.0069400002 0.1885070056 -0.0191796780
-0.0069400002 0.1885070056 -0.0007206716
-0.0069400002 0.1885070056 0.0243537913
-0.0069400002 0.1885070056 0.0027901895
-0.0053882501 0.1860135952 -0.0008615609
-0.0053342501 0.1859513456 0.0026837398
-0.0051070001 0.1856893785 0.0242129020
-0.0057347500 0.1864130301 -0.0342912915
-0.0057347500 0.1864130301 -0.0363513502
-0.0055615001 0.1862133127 -0.0192409536
-0.0053882501 0.1860135952 -0.0054596119
-0.0051070001 0.1856893785 0.0216749097
-0.0053342501 0.1859513456 0.0010192124
-0.0061780000 0.1869239956 -0.0054515962
-0.0061780000 0.1869239956 0.0010497166
-0.0061780000 0.1869239956 0.0217107577
-0.0061780000 0.1869239956 -0.0363433345
-0.0061780000 0.1869239956 -0.0342554434
-0.0061780000 0.1869239956 -0.0192104494
-0.0061780000 0.1869239956 -0.0007914234
-0.0061780000 0.1869239956 0.0242830395
-0.0061780000 0.1869239956 0.0027367326
0.0035754806 0.1853452482 -0.0692405553
0.0035129493 0.1852912485 -0.0489803893
0.0032497969 0.1850639997 -0.0441660924
0.0039767228 0.1856917464 -0.0692405553
0.0039767228 0.1856917464 -0.0441660924
0.0037761017 0.1855184973 -0.0489803893
0.0035754806 0.1853452482 -0.0132743541
0.0032497969 0.1850639997 -0.0132743541
0.0035129493 0.1852912485 -0.0287202233
0.0030446250 0.1849294220 0.0287944723
0.0027321563 0.1847791054 0.0284141285
0.0026579063 0.1847433867 0.0268135150
0.0030446250 0.1849294220 0.0312350116
0.0026579063 0.1847433867 0.0312350116
0.0027321563 0.1847791054 0.0300147419
0.0021814688 0.1845141911 0.0287944723
0.0021814688 0.1845141911 0.0268135150
0.0024196875 0.1846287889 0.0284141285
-0.0036723750 0.1846746822 0.0288623941
-0.0039595937 0.1848701728 0.0284719253
-0.0040278437 0.1849166260 0.0268287025
-0.0036723750 0.1846746822 0.0313679021
-0.0040278437 0.1849166260 0.0313679021
-0.0039595937 0.1848701728 0.0301151481
-0.0044657813 0.1852147007 0.0288623941
-0.0044657813 0.1852147007 0.0268287025
-0.0042468125 0.1850656634 0.0284719253
-0.0064853905 0.1937578806 -0.0441660924
-0.0062900976 0.1940437192 -0.0489803893
-0.0062436914 0.1941116413 -0.0692405553
-0.0064853905 0.1937578806 -0.0132743541
-0.0062436914 0.1941116413 -0.0132743541
-0.0062900976 0.1940437192 -0.0287202233
-0.0059459181 0.1945474745 -0.0441660924
-0.0059459181 0.1945474745 -0.0692405553
-0.0060948047 0.1943295579 -0.0489803893
-0.0070942188 0.1921080714 -0.0441660924
-0.0069798047 0.1924365179 -0.0489803893
-0.0069526172 0.1925145646 -0.0692405553
-0.0070942188 0.1921080714 -0.0132743541
-0.0069526172 0.1925145646 -0.0132743541
-0.0069798047 0.1924365179 -0.0287202233
-0.0067781640 0.1930153642 -0.0441660924
-0.0067781640 0.1930153642 -0.0692405553
-0.0068653906 0.1927649644 -0.0489803893
-0.0072605078 0.1903621851 -0.0441660924
-0.0072338769 0.1907077953 -0.0489803893
-0.0072275488 0.1907899205 -0.0692405553
-0.0072605078 0.1903621851 -0.0132743541
-0.0072275488 0.1907899205 -0.0132743541
-0.0072338769 0.1907077953 -0.0287202233
-0.0071869434 0.1913168904 -0.0441660924
-0.0071869434 0.1913168904 -0.0692405553
-0.0072072461 0.1910534055 -0.0489803893
-0.0069632033 0.1886287862 -0.0441660924
-0.0070283009 0.1889704487 -0.0489803893
-0.0070437697 0.1890516358 -0.0692405553
-0.0069632033 0.1886287862 -0.0132743541
-0.0070437697 0.1890516358 -0.0132743541
-0.0070283009 0.1889704487 -0.0287202233
-0.0071430274 0.1895725864 -0.0441660924
-0.0071430274 0.1895725864 -0.0692405553
-0.0070933985 0.1893121111 -0.0489803893
-0.0002831875 0.1839004909 0.0288114521
-0.0006287969 0.1839271226 0.0284285772
-0.0007109219 0.1839334510 0.0268173118
-0.0002831875 0.1839004909 0.0312682330
-0.0007109219 0.1839334510 0.0312682330
-0.0006287969 0.1839271226 0.0300398426
-0.0012378906 0.1839740578 0.0288114521
-0.0012378906 0.1839740578 0.0268173118
-0.0009744063 0.1839537544 0.0284285772
-0.0020285781 0.1840667138 0.0288328354
-0.0023556445 0.1841809305 0.0284467729
-0.0024333633 0.1842080711 0.0268220931
-0.0020285781 0.1840667138 0.0313100699
-0.0024333633 0.1842080711 0.0313100699
-0.0023556445 0.1841809305 0.0300714526
-0.0029320586 0.1843822233 0.0288328354
-0.0029320586 0.1843822233 0.0268220931
-0.0026827109 0.1842951472 0.0284467729
0.0014502187 0.1841977963 0.0287988745
0.0011085547 0.1841326984 0.0284178745
0.0010273672 0.1841172296 0.0268144994
0.0014502187 0.1841977963 0.0312436246
0.0010273672 0.1841172296 0.0312436246
0.0011085547 0.1841326984 0.0300212496
0.0005064141 0.1840179714 0.0287988745
0.0005064141 0.1840179714 0.0268144994
0.0007668906 0.1840676005 0.0284178745
-0.0062315782 0.1870353010 -0.0441660924
-0.0063818946 0.1873475745 -0.0489803893
-0.0064176134 0.1874217780 -0.0692405553
-0.0062315782 0.1870353010 -0.0132743541
-0.0064176134 0.1874217780 -0.0132743541
-0.0063818946 0.1873475745 -0.0287202233
-0.0066468087 0.1878979178 -0.0441660924
-0.0066468087 0.1878979178 -0.0692405553
-0.0065322110 0.1876598479 -0.0489803893
-0.0051070001 0.1856893785 -0.0441660924
-0.0053342501 0.1859513456 -0.0489803893
-0.0053882501 0.1860135952 -0.0692405553
-0.0051070001 0.1856893785 -0.0132743541
-0.0053882501 0.1860135952 -0.0132743541
-0.0053342501 0.1859513456 -0.0287202233
-0.0057347500 0.1864130301 -0.0441660924
-0.0057347500 0.1864130301 -0.0692405553
-0.0055615001 0.1862133127 -0.0489803893
0.0030446250 0.1849294220 -0.0369446471
0.0027321563 0.1847791054 -0.0214987780
0.0026579063 0.1847433867 -0.0369446471
0.0030446250 0.1849294220 -0.0060529088
0.0026579063 0.1847433867 0.0190215540
0.0027321563 0.1847791054 -0.0012386120
0.0021814688 0.1845141911 0.0190215540
0.0021814688 0.1845141911 -0.0060529088
0.0024196875 0.1846287889 -0.0012386120
-0.0036723750 0.1846746822 -0.0369446471
-0.0039595937 0.1848701728 -0.0214987780
-0.0040278437 0.1849166260 -0.0369446471
-0.0036723750 0.1846746822 -0.0060529088
-0.0040278437 0.1849166260 0.0190215540
-0.0039595937 0.1848701728 -0.0012386120
-0.0044657813 0.1852147007 0.0190215540
-0.0044657813 0.1852147007 -0.0060529088
-0.0042468125 0.1850656634 -0.0012386120
0.0043568907 0.1977062897 -0.0784839988
0.0042920430 0.1971638460 -0.0784839988
0.0040771056 0.1980322162 -0.0784839988
0.0046793281 0.1960947051 -0.0784839988
0.0046612617 0.1951125272 -0.0784839988
0.0045035117 0.1961068976 -0.0784839988
0.0043165664 0.1955140686 -0.0784839988
0.0040548477 0.1968221730 -0.0784839988
0.0042774454 0.1963702463 -0.0784839988
0.0048255488 0.1918373238 -0.0784839988
0.0046279356 0.1924841570 -0.0784839988
0.0046939570 0.1941605661 -0.0784839988
0.0046429747 0.1893766306 -0.0784839988
0.0043631896 0.1897025572 -0.0784839988
0.0045081954 0.1908703258 -0.0784839988
0.0042010684 0.1925647918 -0.0784839988
0.0043492617 0.1945621076 -0.0784839988
0.0044018692 0.1927475057 -0.0784839988
0.0046789689 0.1971146451 -0.0784839988
0.0048041876 0.1963830557 -0.0784839988
0.0044914688 0.1975011185 -0.0784839988
0.0052324064 0.1950269252 -0.0784839988
0.0054941251 0.1937188208 -0.0784839988
0.0051671564 0.1950138368 -0.0784839988
0.0052631250 0.1941949561 -0.0784839988
0.0048139063 0.1958895339 -0.0784839988
0.0050156563 0.1953261073 -0.0784839988
0.0056902501 0.1912251877 -0.0784839988
0.0055567501 0.1917788179 -0.0784839988
0.0055965001 0.1928687429 -0.0784839988
0.0055747501 0.1896764630 -0.0784839988
0.0053872500 0.1900629364 -0.0784839988
0.0054810001 0.1907630959 -0.0784839988
0.0052717500 0.1920877964 -0.0784839988
0.0053655000 0.1933448781 -0.0784839988
0.0054052500 0.1920910885 -0.0784839988
0.0059977697 0.1943256189 -0.0784839988
0.0060450802 0.1937283914 -0.0784839988
0.0059911779 0.1925717130 -0.0784839988
0.0061030431 0.1959654760 -0.0784839988
0.0061819005 0.1955426228 -0.0784839988
0.0061141231 0.1948038821 -0.0784839988
0.0061737794 0.1933818106 -0.0784839988
0.0060883302 0.1920507578 -0.0784839988
0.0061087970 0.1933867261 -0.0784839988
0.0060076817 0.1904677398 -0.0784839988
0.0060420724 0.1906500370 -0.0784839988
0.0060865391 0.1900448866 -0.0784839988
0.0059490294 0.1915156649 -0.0784839988
0.0059802794 0.1919434003 -0.0784839988
0.0060036056 0.1913373125 -0.0784839988
0.0060774318 0.1914224451 -0.0784839988
0.0061250391 0.1905718566 -0.0784839988
0.0060673224 0.1909956472 -0.0784839988
0.0064418828 0.1886357604 -0.0784839988
0.0063774453 0.1886243688 -0.0784839988
0.0062065313 0.1899487470 -0.0784839988
0.0066933359 0.1864911910 -0.0784839988
0.0066620859 0.1860634556 -0.0784839988
0.0065423594 0.1872178655 -0.0784839988
0.0063721328 0.1876810551 -0.0784839988
0.0061680313 0.1894217770 -0.0784839988
0.0063521953 0.1882787587 -0.0784839988
0.0056910000 0.1868961623 -0.0784839988
0.0056257207 0.1869009971 -0.0784839988
0.0058045254 0.1882255089 -0.0784839988
0.0053769844 0.1847576078 -0.0784839988
0.0052356270 0.1843511146 -0.0784839988
0.0054197754 0.1854984385 -0.0784839988
0.0053754903 0.1859888695 -0.0784839988
0.0056303731 0.1877247093 -0.0784839988
0.0055115039 0.1865725506 -0.0784839988
0.0058993185 0.1912754071 -0.0784839988
0.0058144278 0.1904229980 -0.0784839988
0.0057579611 0.1908689139 -0.0784839988
0.0059579708 0.1902274820 -0.0784839988
0.0058642208 0.1889704003 -0.0784839988
0.0058528946 0.1897357225 -0.0784839988
0.0056900684 0.1884696006 -0.0784839988
0.0056424610 0.1893201892 -0.0784839988
0.0057386778 0.1894072760 -0.0784839988
-0.0013610781 0.1839835503 -0.0692405553
-0.0014432031 0.1839898786 -0.0489803893
-0.0017888125 0.1840165104 -0.0441660924
-0.0008341094 0.1839429435 -0.0692405553
-0.0008341094 0.1839429435 -0.0441660924
-0.0010975938 0.1839632469 -0.0489803893
-0.0013610781 0.1839835503 -0.0132743541
-0.0017888125 0.1840165104 -0.0132743541
-0.0014432031 0.1839898786 -0.0287202233
-0.0030486367 0.1844229342 -0.0692405553
-0.0031263554 0.1844500748 -0.0489803893
-0.0034534218 0.1845642915 -0.0441660924
-0.0025499414 0.1842487820 -0.0692405553
-0.0025499414 0.1842487820 -0.0441660924
-0.0027992890 0.1843358581 -0.0489803893
-0.0030486367 0.1844229342 -0.0132743541
-0.0034534218 0.1845642915 -0.0132743541
-0.0031263554 0.1844500748 -0.0287202233
-0.0011586386 0.1994114379 -0.0784839988
-0.0014706953 0.1988365159 -0.0784839988
-0.0015800253 0.1993308712 -0.0784839988
-0.0011017910 0.1983917897 -0.0784839988
-0.0014770351 0.1974835864 -0.0784839988
-0.0014334121 0.1981677856 -0.0784839988
-0.0019961835 0.1973843283 -0.0784839988
-0.0020423261 0.1982119648 -0.0784839988
-0.0017738925 0.1981026877 -0.0784839988
-0.0013539824 0.1931363367 -0.0784839988
-0.0016480098 0.1936957541 -0.0784839988
-0.0015334258 0.1963084541 -0.0784839988
-0.0016520566 0.1891290298 -0.0784839988
-0.0020734433 0.1890484632 -0.0784839988
-0.0018435000 0.1910675854 -0.0784839988
-0.0022945175 0.1929565118 -0.0784839988
-0.0020525742 0.1962091959 -0.0784839988
-0.0019884902 0.1936306563 -0.0784839988
-0.0034129141 0.1989513997 -0.0784839988
-0.0035651700 0.1983156209 -0.0784839988
-0.0037993887 0.1987653643 -0.0784839988
-0.0030928828 0.1979804751 -0.0784839988
-0.0032195918 0.1970063518 -0.0784839988
-0.0033552793 0.1976788457 -0.0784839988
-0.0036957285 0.1967771562 -0.0784839988
-0.0039554942 0.1975652443 -0.0784839988
-0.0036675508 0.1975285292 -0.0784839988
-0.0030485448 0.1930617987 -0.0784839988
-0.0033175507 0.1934933881 -0.0784839988
-0.0032096777 0.1959065235 -0.0784839988
-0.0033261660 0.1893279022 -0.0784839988
-0.0037126406 0.1891418669 -0.0784839988
-0.0034996269 0.1910445339 -0.0784839988
-0.0039111563 0.1926465678 -0.0784839988
-0.0036858145 0.1956773280 -0.0784839988
-0.0036298223 0.1933430715 -0.0784839988
0.0003846328 0.1839947682 -0.0692405553
0.0003034453 0.1839792994 -0.0489803893
-0.0000382187 0.1839142016 -0.0441660924
0.0009055859 0.1840940264 -0.0692405553
0.0009055859 0.1840940264 -0.0441660924
0.0006451094 0.1840443973 -0.0489803893
0.0003846328 0.1839947682 -0.0132743541
-0.0000382187 0.1839142016 -0.0132743541
0.0003034453 0.1839792994 -0.0287202233
-0.0004841562 0.1993943908 -0.0784839988
-0.0005381855 0.1988905667 -0.0784839988
-0.0009135996 0.1994256410 -0.0784839988
0.0001017656 0.1983362423 -0.0784839988
0.0001479082 0.1975086057 -0.0784839988
-0.0001539121 0.1981965862 -0.0784839988
-0.0003811660 0.1975471060 -0.0784839988
-0.0008567520 0.1984059928 -0.0784839988
-0.0005009024 0.1982218364 -0.0784839988
0.0004004961 0.1930383367 -0.0784839988
0.0001002871 0.1936884305 -0.0784839988
0.0002147051 0.1963239809 -0.0784839988
0.0001003164 0.1890289233 -0.0784839988
-0.0003291270 0.1890601736 -0.0784839988
-0.0000965840 0.1910588802 -0.0784839988
-0.0005580215 0.1931080872 -0.0784839988
-0.0003143692 0.1963624812 -0.0784839988
-0.0002467031 0.1937136807 -0.0784839988
-0.0045681563 0.1852843805 -0.0692405553
-0.0046364063 0.1853308337 -0.0489803893
-0.0049236251 0.1855263243 -0.0441660924
-0.0041302187 0.1849863058 -0.0692405553
-0.0041302187 0.1849863058 -0.0441660924
-0.0043491875 0.1851353432 -0.0489803893
-0.0045681563 0.1852843805 -0.0132743541
-0.0049236251 0.1855263243 -0.0132743541
-0.0046364063 0.1853308337 -0.0287202233
-0.0054725099 0.1979257258 -0.0784839988
-0.0054550802 0.1972707652 -0.0784839988
-0.0057984376 0.1976444773 -0.0784839988
-0.0049109513 0.1970703022 -0.0784839988
-0.0047810685 0.1960947163 -0.0784839988
-0.0050867853 0.1967097406 -0.0784839988
-0.0051826115 0.1957482181 -0.0784839988
-0.0056384221 0.1964425555 -0.0784839988
-0.0053501349 0.1964824918 -0.0784839988
-0.0045741720 0.1928236137 -0.0784839988
-0.0048002091 0.1930960988 -0.0784839988
-0.0047057638 0.1951451462 -0.0784839988
-0.0048135938 0.1896169875 -0.0784839988
-0.0051395216 0.1893357389 -0.0784839988
-0.0049572325 0.1909930518 -0.0784839988
-0.0053016428 0.1921958670 -0.0784839988
-0.0051073068 0.1947986480 -0.0784839988
-0.0050635587 0.1928688500 -0.0784839988
0.0020700938 0.1844606130 -0.0692405553
0.0019958437 0.1844248942 -0.0489803893
0.0016833750 0.1842745777 -0.0441660924
0.0025465313 0.1846898085 -0.0692405553
0.0025465313 0.1846898085 -0.0441660924
0.0023083125 0.1845752107 -0.0489803893
0.0020700938 0.1844606130 -0.0132743541
0.0016833750 0.1842745777 -0.0132743541
0.0019958437 0.1844248942 -0.0287202233
0.0017817148 0.1990805374 -0.0784839988
0.0016007246 0.1986084078 -0.0784839988
0.0013771738 0.1992236045 -0.0784839988
0.0020734726 0.1979050817 -0.0784839988
0.0019057480 0.1970940453 -0.0784839988
0.0017920722 0.1978374921 -0.0784839988
0.0014073535 0.1972703040 -0.0784839988
0.0011705371 0.1982244076 -0.0784839988
0.0014652031 0.1979530904 -0.0784839988
0.0020882519 0.1927725773 -0.0784839988
0.0018046484 0.1934700815 -0.0784839988
0.0019090527 0.1959464045 -0.0784839988
0.0018106308 0.1890386808 -0.0784839988
0.0014060898 0.1891817479 -0.0784839988
0.0016225722 0.1910212273 -0.0784839988
0.0011853164 0.1930919031 -0.0784839988
0.0014106582 0.1961226633 -0.0784839988
0.0014777793 0.1935856797 -0.0784839988
0.0023560664 0.1987299127 -0.0784839988
0.0024336953 0.1981883098 -0.0784839988
0.0020005976 0.1989701467 -0.0784839988
0.0030857617 0.1972584889 -0.0784839988
0.0033225781 0.1963043853 -0.0784839988
0.0029122617 0.1972232851 -0.0784839988
0.0028846406 0.1966003535 -0.0784839988
0.0022923554 0.1977946910 -0.0784839988
0.0026250429 0.1974173941 -0.0784839988
0.0035986348 0.1923655979 -0.0784839988
0.0033486817 0.1930597692 -0.0784839988
0.0034372578 0.1952103227 -0.0784839988
0.0033595137 0.1891568651 -0.0784839988
0.0030040449 0.1893970991 -0.0784839988
0.0031918555 0.1909553405 -0.0784839988
0.0028052285 0.1929018000 -0.0784839988
0.0029993203 0.1955062909 -0.0784839988
0.0030614629 0.1932538782 -0.0784839988
-0.0002831875 0.1839004909 -0.0369446471
-0.0006287969 0.1839271226 -0.0214987780
-0.0007109219 0.1839334510 -0.0369446471
-0.0002831875 0.1839004909 -0.0060529088
-0.0007109219 0.1839334510 0.0190215540
-0.0006287969 0.1839271226 -0.0012386120
-0.0012378906 0.1839740578 0.0190215540
-0.0012378906 0.1839740578 -0.0060529088
-0.0009744063 0.1839537544 -0.0012386120
-0.0020285781 0.1840667138 -0.0369446471
-0.0023556445 0.1841809305 -0.0214987780
-0.0024333633 0.1842080711 -0.0369446471
-0.0020285781 0.1840667138 -0.0060529088
-0.0024333633 0.1842080711 0.0190215540
-0.0023556445 0.1841809305 -0.0012386120
-0.0029320586 0.1843822233 0.0190215540
-0.0029320586 0.1843822233 -0.0060529088
-0.0026827109 0.1842951472 -0.0012386120
0.0014502187 0.1841977963 -0.0369446471
0.0011085547 0.1841326984 -0.0214987780
0.0010273672 0.1841172296 -0.0369446471
0.0014502187 0.1841977963 -0.0060529088
0.0010273672 0.1841172296 0.0190215540
0.0011085547 0.1841326984 -0.0012386120
0.0005064141 0.1840179714 0.0190215540
0.0005064141 0.1840179714 -0.0060529088
0.0007668906 0.1840676005 -0.0012386120
0.0052650997 0.1857699164 -0.0784839988
0.0050914063 0.1857393123 -0.0784839988
0.0051366817 0.1867455023 -0.0784839988
0.0051252364 0.1841321614 -0.0784839988
0.0048832930 0.1837784007 -0.0784839988
0.0049996778 0.1846652003 -0.0784839988
0.0047250822 0.1849803225 -0.0784839988
0.0048386076 0.1863096691 -0.0784839988
0.0048959161 0.1854534736 -0.0784839988
0.0051750703 0.1916238737 -0.0784839988
0.0050373301 0.1903256051 -0.0784839988
0.0049331270 0.1912701130 -0.0784839988
0.0052905703 0.1895990138 -0.0784839988
0.0051423770 0.1876016980 -0.0784839988
0.0051130801 0.1889976126 -0.0784839988
0.0048443029 0.1871658648 -0.0784839988
0.0047505528 0.1888094199 -0.0784839988
0.0049175899 0.1887117739 -0.0784839988
0.0038259493 0.1984700522 -0.0784839988
0.0033362540 0.1988300554 -0.0784839988
0.0032336641 0.1996643898 -0.0784839988
0.0038036915 0.1972600091 -0.0784839988
0.0031933399 0.1974721687 -0.0784839988
0.0033216563 0.1980364557 -0.0784839988
0.0024636445 0.1989435926 -0.0784839988
0.0024817110 0.1999257705 -0.0784839988
0.0028430899 0.1990014804 -0.0784839988
0.0040645919 0.1919085652 -0.0784839988
0.0038825001 0.1902501991 -0.0784839988
0.0037389083 0.1916273167 -0.0784839988
0.0042267130 0.1890463306 -0.0784839988
0.0040326212 0.1864418398 -0.0784839988
0.0039888263 0.1883730193 -0.0784839988
0.0036313790 0.1860953416 -0.0784839988
0.0034997872 0.1884185840 -0.0784839988
0.0037256739 0.1881457705 -0.0784839988
0.0059509571 0.1965752961 -0.0784839988
0.0055353517 0.1971245864 -0.0784839988
0.0055017384 0.1982698739 -0.0784839988
0.0058456837 0.1949354391 -0.0784839988
0.0053110158 0.1952989641 -0.0784839988
0.0054663087 0.1960490958 -0.0784839988
0.0047575783 0.1973866840 -0.0784839988
0.0048430275 0.1987177367 -0.0784839988
0.0051033400 0.1974183147 -0.0784839988
0.0064674942 0.1931787912 -0.0784839988
0.0064242461 0.1924326037 -0.0784839988
0.0062633926 0.1949195131 -0.0784839988
0.0067108262 0.1888734096 -0.0784839988
0.0067042344 0.1871195037 -0.0784839988
0.0065838340 0.1896089444 -0.0784839988
0.0064527813 0.1892640731 -0.0784839988
0.0062552716 0.1927587010 -0.0784839988
0.0064189200 0.1910154477 -0.0784839988
0.0062897266 0.1870579454 -0.0784839988
0.0060385938 0.1859074803 -0.0784839988
0.0057994922 0.1866350923 -0.0784839988
0.0065796797 0.1854403460 -0.0784839988
0.0063247968 0.1837045062 -0.0784839988
0.0062287578 0.1848465872 -0.0784839988
0.0057208281 0.1831835511 -0.0784839988
0.0054854766 0.1844965377 -0.0784839988
0.0058326484 0.1845049218 -0.0784839988
-0.0017761972 0.1995346374 -0.0784839988
-0.0022172383 0.1996119593 -0.0784839988
-0.0020359629 0.2003227254 -0.0784839988
-0.0022384980 0.1984157310 -0.0784839988
-0.0028735078 0.1982956158 -0.0784839988
-0.0025204355 0.1988781311 -0.0784839988
-0.0031935391 0.1992665404 -0.0784839988
-0.0028182950 0.2001747436 -0.0784839988
-0.0027303262 0.1995149063 -0.0784839988
-0.0007513809 0.1921803142 -0.0784839988
-0.0009825430 0.1901829892 -0.0784839988
-0.0011791153 0.1922132743 -0.0784839988
-0.0005224863 0.1881324006 -0.0784839988
-0.0007644297 0.1848797165 -0.0784839988
-0.0008324238 0.1875281887 -0.0784839988
-0.0012913984 0.1849203233 -0.0784839988
-0.0014771895 0.1882059675 -0.0784839988
-0.0011780332 0.1875548204 -0.0784839988
-0.0024807753 0.1920604497 -0.0784839988
-0.0026973046 0.1902206421 -0.0784839988
-0.0028855605 0.1922018070 -0.0784839988
-0.0022597011 0.1881524010 -0.0784839988
-0.0024850429 0.1851216409 -0.0784839988
-0.0025523144 0.1876575712 -0.0784839988
-0.0029837382 0.1852957931 -0.0784839988
-0.0031631816 0.1884679105 -0.0784839988
-0.0028793808 0.1877717879 -0.0784839988
-0.0040419669 0.1989117553 -0.0784839988
-0.0044883145 0.1988727199 -0.0784839988
-0.0044977774 0.1996060927 -0.0784839988
-0.0041980723 0.1977116353 -0.0784839988
-0.0047805919 0.1974318493 -0.0784839988
-0.0045906954 0.1980856282 -0.0784839988
-0.0053421505 0.1982872729 -0.0784839988
-0.0052154415 0.1992613963 -0.0784839988
-0.0049589903 0.1986466528 -0.0784839988
-0.0040784297 0.1918433887 -0.0784839988
-0.0042663907 0.1902865288 -0.0784839988
-0.0044338985 0.1920853325 -0.0784839988
-0.0038799141 0.1883386878 -0.0784839988
-0.0040742500 0.1857359067 -0.0784839988
-0.0041361953 0.1879879912 -0.0784839988
-0.0045121875 0.1860339815 -0.0784839988
-0.0046733204 0.1888787063 -0.0784839988
-0.0044234141 0.1881834817 -0.0784839988
0.0011236972 0.1995121673 -0.0784839988
0.0006361055 0.1997065493 -0.0784839988
0.0006481113 0.2003710540 -0.0784839988
0.0009170605 0.1985129704 -0.0784839988
0.0002737500 0.1985608207 -0.0784839988
0.0005005840 0.1990512319 -0.0784839988
-0.0003121719 0.1996189692 -0.0784839988
-0.0001444472 0.2004300056 -0.0784839988
0.0001163106 0.1997452124 -0.0784839988
0.0009986367 0.1921958410 -0.0784839988
0.0007673594 0.1901756655 -0.0784839988
0.0005757851 0.1921152743 -0.0784839988
0.0012194101 0.1882856858 -0.0784839988
0.0009757578 0.1850312919 -0.0784839988
0.0009121523 0.1876112131 -0.0784839988
0.0004548047 0.1849320337 -0.0784839988
0.0002756055 0.1881058610 -0.0784839988
0.0005704883 0.1875461152 -0.0784839988
-0.0059619142 0.1974615946 -0.0784839988
-0.0060771993 0.1965747951 -0.0784839988
-0.0062036133 0.1971078339 -0.0784839988
-0.0058018986 0.1962596728 -0.0784839988
-0.0059137149 0.1949303263 -0.0784839988
-0.0059722540 0.1957865217 -0.0784839988
-0.0062114883 0.1944944931 -0.0784839988
-0.0063413710 0.1954700790 -0.0784839988
-0.0061675469 0.1955006831 -0.0784839988
-0.0054386115 0.1915396405 -0.0784839988
-0.0055848009 0.1903715435 -0.0784839988
-0.0057198615 0.1918638572 -0.0784839988
-0.0052764904 0.1886795124 -0.0784839988
-0.0054261485 0.1866821966 -0.0784839988
-0.0054784747 0.1884957452 -0.0784839988
-0.0057726485 0.1870816315 -0.0784839988
-0.0059042403 0.1894031640 -0.0784839988
-0.0057057247 0.1887577123 -0.0784839988
-0.0058273693 0.1924305754 -0.0784839988
-0.0059939278 0.1925282214 -0.0784839988
-0.0059194103 0.1940741306 -0.0784839988
-0.0060117481 0.1899698823 -0.0784839988
-0.0062534472 0.1896161216 -0.0784839988
-0.0061148516 0.1909143902 -0.0784839988
-0.0063668417 0.1916409816 -0.0784839988
-0.0062171836 0.1936382974 -0.0784839988
-0.0061892207 0.1922423828 -0.0784839988
0.0026379550 0.1920981285 -0.0784839988
0.0024248945 0.1901954615 -0.0784839988
0.0022512363 0.1919120932 -0.0784839988
0.0028367715 0.1885934275 -0.0784839988
0.0026114297 0.1855626674 -0.0784839988
0.0025552871 0.1878969238 -0.0784839988
0.0021349922 0.1853334719 -0.0784839988
0.0019736152 0.1881781967 -0.0784839988
0.0022428183 0.1877466073 -0.0784839988
0.0045251134 0.1845168934 -0.0784839988
0.0041349239 0.1836898683 -0.0784839988
0.0039443029 0.1842371110 -0.0784839988
0.0046833243 0.1833149716 -0.0784839988
0.0042309317 0.1820596033 -0.0784839988
0.0042386856 0.1829015949 -0.0784839988
0.0035153731 0.1817149114 -0.0784839988
0.0033869552 0.1826904973 -0.0784839988
0.0037693907 0.1826755308 -0.0784839988
0.0038135216 0.1844370801 -0.0784839988
0.0036372286 0.1844508621 -0.0784839988
0.0039402306 0.1854111999 -0.0784839988
0.0032561739 0.1828904664 -0.0784839988
0.0029304903 0.1826092179 -0.0784839988
0.0032716954 0.1834365245 -0.0784839988
0.0030865958 0.1838093335 -0.0784839988
0.0035389884 0.1850647017 -0.0784839988
0.0033740763 0.1842236133 -0.0784839988
0.0006899903 0.2065678899 -0.0784839988
0.0009690821 0.2050690767 -0.0784839988
0.0000796387 0.2067800496 -0.0784839988
0.0022345021 0.2032274136 -0.0784839988
0.0028778126 0.2007281476 -0.0784839988
0.0019820411 0.2028782448 -0.0784839988
0.0021258594 0.2009895283 -0.0784839988
0.0008721973 0.2037009539 -0.0784839988
0.0014888770 0.2030496698 -0.0784839988
0.0015544239 0.2060385677 -0.0784839988
0.0022240235 0.2044381263 -0.0784839988
0.0010197559 0.2064020927 -0.0784839988
0.0037576465 0.2022502285 -0.0784839988
0.0050113087 0.1995388029 -0.0784839988
0.0036689942 0.2019535662 -0.0784839988
0.0043525978 0.1999866657 -0.0784839988
0.0025642677 0.2030616164 -0.0784839988
0.0032369825 0.2022472944 -0.0784839988
0.0075312872 0.1924479168 -0.0784839988
0.0072337911 0.1934210185 -0.0784839988
0.0073337775 0.1959425446 -0.0784839988
0.0072554707 0.1887468015 -0.0784839988
0.0068340840 0.1892372775 -0.0784839988
0.0070528985 0.1909936637 -0.0784839988
0.0065907520 0.1935426590 -0.0784839988
0.0068146290 0.1965468110 -0.0784839988
0.0068933106 0.1938173230 -0.0784839988
0.0218674467 0.1756221763 -0.0784839988
0.0192376031 0.1764919956 -0.0784839988
0.0097431795 0.1815091391 -0.0784839988
0.0362005752 0.1678484831 -0.0784839988
0.0357103408 0.1674256299 -0.0784839988
0.0286379016 0.1713936644 -0.0784839988
0.0207732436 0.1746783680 -0.0784839988
0.0091392108 0.1809881840 -0.0784839988
0.0188414937 0.1761503303 -0.0784839988
0.0204647827 0.1744760090 -0.0784839988
0.0176676285 0.1753802416 -0.0784839988
0.0077597050 0.1800831893 -0.0784839988
0.0354018799 0.1672232709 -0.0784839988
0.0348210694 0.1669434885 -0.0784839988
0.0274640364 0.1706235757 -0.0784839988
0.0191684136 0.1738515347 -0.0784839988
0.0070441464 0.1797384974 -0.0784839988
0.0171983336 0.1751541775 -0.0784839988
-0.0010523399 0.1828961262 -0.0784839988
-0.0012832930 0.1830724769 -0.0784839988
-0.0008829063 0.1837088725 -0.0784839988
-0.0017880508 0.1819354296 -0.0784839988
-0.0022157852 0.1819683897 -0.0784839988
-0.0017658047 0.1824424097 -0.0784839988
-0.0020070430 0.1829696932 -0.0784839988
-0.0014098750 0.1837494794 -0.0784839988
-0.0016289024 0.1830991087 -0.0784839988
0.0009672187 0.1830280305 -0.0784839988
0.0006975547 0.1831373077 -0.0784839988
0.0009193672 0.1838556671 -0.0784839988
0.0005052187 0.1819091242 -0.0784839988
0.0000823672 0.1818285575 -0.0784839988
0.0003945547 0.1824034795 -0.0784839988
0.0000234141 0.1828482057 -0.0784839988
0.0003984141 0.1837564089 -0.0784839988
0.0003558906 0.1830722098 -0.0784839988
-0.0022468086 0.1830198966 -0.0784839988
-0.0025413438 0.1832901606 -0.0784839988
-0.0024821601 0.1839740002 -0.0784839988
-0.0024555508 0.1820185931 -0.0784839988
-0.0028603360 0.1821599504 -0.0784839988
-0.0026782461 0.1826334615 -0.0784839988
-0.0031502890 0.1833354061 -0.0784839988
-0.0029808554 0.1841481524 -0.0784839988
-0.0028684101 0.1834043773 -0.0784839988
-0.0012928828 0.2068819705 -0.0784839988
-0.0018059707 0.2052748454 -0.0784839988
-0.0019278926 0.2067618554 -0.0784839988
-0.0012928828 0.2038618264 -0.0784839988
-0.0019278926 0.2012902957 -0.0784839988
-0.0018059707 0.2032941016 -0.0784839988
-0.0027102246 0.2011423138 -0.0784839988
-0.0027102246 0.2035937294 -0.0784839988
-0.0023190586 0.2031970486 -0.0784839988
-0.0095924472 0.2066466838 -0.0784839988
-0.0086664453 0.2048365537 -0.0784839988
-0.0101749667 0.2063668978 -0.0784839988
-0.0067990918 0.2034785579 -0.0784839988
-0.0051142774 0.2006272411 -0.0784839988
-0.0068344395 0.2027587569 -0.0784839988
-0.0058319415 0.2002825447 -0.0784839988
-0.0080992754 0.2028540755 -0.0784839988
-0.0073051152 0.2025326898 -0.0784839988
-0.0041534883 0.1837190584 -0.0784839988
-0.0043689883 0.1840570022 -0.0784839988
-0.0041354219 0.1847029461 -0.0784839988
-0.0046136837 0.1828049835 -0.0784839988
-0.0049691525 0.1830469272 -0.0784839988
-0.0046708048 0.1834575115 -0.0784839988
-0.0049468946 0.1842590769 -0.0784839988
-0.0045733594 0.1850010209 -0.0784839988
-0.0046562071 0.1842524928 -0.0784839988
-0.0002814160 0.2068549324 -0.0784839988
-0.0004049316 0.2053540477 -0.0784839988
-0.0009247265 0.2069027828 -0.0784839988
0.0005111426 0.2037758368 -0.0784839988
0.0005111426 0.2013244211 -0.0784839988
0.0001148633 0.2033346408 -0.0784839988
-0.0002814160 0.2013833727 -0.0784839988
-0.0009247265 0.2038826387 -0.0784839988
-0.0004049316 0.2033733038 -0.0784839988
0.0028814239 0.1836747557 -0.0784839988
0.0025932832 0.1837114702 -0.0784839988
0.0026214141 0.1844628402 -0.0784839988
0.0027253184 0.1824746402 -0.0784839988
0.0023385996 0.1822886049 -0.0784839988
0.0024909024 0.1829243814 -0.0784839988
0.0020182676 0.1832595249 -0.0784839988
0.0021449766 0.1842336447 -0.0784839988
0.0022808145 0.1835611537 -0.0784839988
-0.0063817852 0.1972670209 -0.0784839988
-0.0067552422 0.1971805901 -0.0784839988
-0.0067587383 0.1981735143 -0.0784839988
-0.0065195429 0.1956292660 -0.0784839988
-0.0070083124 0.1952064128 -0.0784839988
-0.0068455898 0.1961064781 -0.0784839988
-0.0074727187 0.1963232126 -0.0784839988
-0.0073609023 0.1976525592 -0.0784839988
-0.0071501679 0.1968389247 -0.0784839988
-0.0051302696 0.1844221311 -0.0784839988
-0.0053540509 0.1848730046 -0.0784839988
-0.0053934532 0.1857302355 -0.0784839988
-0.0051525275 0.1832099814 -0.0784839988
-0.0054337775 0.1835341981 -0.0784839988
-0.0053686485 0.1840780234 -0.0784839988
-0.0057580196 0.1851457827 -0.0784839988
-0.0057399532 0.1861296705 -0.0784839988
-0.0055813009 0.1851349717 -0.0784839988
-0.0065812501 0.1858186828 -0.0784839988
-0.0066794415 0.1863123155 -0.0784839988
-0.0064958009 0.1871497392 -0.0784839988
-0.0069157188 0.1846549610 -0.0784839988
-0.0071017540 0.1850414380 -0.0784839988
-0.0068988009 0.1855490953 -0.0784839988
-0.0069964806 0.1866812995 -0.0784839988
-0.0067249962 0.1876258789 -0.0784839988
-0.0068297579 0.1866245889 -0.0784839988
-0.0064635214 0.1911770600 -0.0784839988
-0.0065571406 0.1904769035 -0.0784839988
-0.0066495566 0.1915635370 -0.0784839988
-0.0063501269 0.1891522000 -0.0784839988
-0.0064441212 0.1878951219 -0.0784839988
-0.0064827715 0.1891489109 -0.0784839988
-0.0066733165 0.1883712616 -0.0784839988
-0.0067653575 0.1900148168 -0.0784839988
-0.0066330880 0.1894611843 -0.0784839988
-0.0075457031 0.1958232908 -0.0784839988
-0.0074279140 0.1949364443 -0.0784839988
-0.0076873047 0.1954167976 -0.0784839988
-0.0070812968 0.1947064909 -0.0784839988
-0.0068459452 0.1933935044 -0.0784839988
-0.0071233359 0.1942039977 -0.0784839988
-0.0070203984 0.1928927047 -0.0784839988
-0.0073973516 0.1937991981 -0.0784839988
-0.0072377500 0.1938755512 -0.0784839988
-0.0067168457 0.1919198109 -0.0784839988
-0.0068132129 0.1918327234 -0.0784839988
-0.0067644531 0.1927703958 -0.0784839988
-0.0068326466 0.1903710906 -0.0784839988
-0.0069742482 0.1899645974 -0.0784839988
-0.0068891602 0.1908170042 -0.0784839988
-0.0070329005 0.1910125180 -0.0784839988
-0.0069389063 0.1922695962 -0.0784839988
-0.0069276270 0.1915042769 -0.0784839988
-0.0077375781 0.1951765397 -0.0784839988
-0.0076192324 0.1940221298 -0.0784839988
-0.0077705371 0.1947488044 -0.0784839988
-0.0074476250 0.1935589403 -0.0784839988
-0.0072452325 0.1918182184 -0.0784839988
-0.0074290684 0.1929612367 -0.0784839988
-0.0072858379 0.1912912484 -0.0784839988
-0.0075211894 0.1926042350 -0.0784839988
-0.0074556992 0.1926156265 -0.0784839988
-0.0070831739 0.1907722602 -0.0784839988
-0.0071189454 0.1905899624 -0.0784839988
-0.0071637403 0.1911951098 -0.0784839988
-0.0070245216 0.1897243396 -0.0784839988
-0.0070574806 0.1892966043 -0.0784839988
-0.0070804786 0.1899026897 -0.0784839988
-0.0071567383 0.1898175549 -0.0784839988
-0.0072043457 0.1906681398 -0.0784839988
-0.0071455762 0.1902443522 -0.0784839988
-0.0070732619 0.1869143856 -0.0784839988
-0.0071219532 0.1875116109 -0.0784839988
-0.0070683790 0.1886682916 -0.0784839988
-0.0071785353 0.1852745241 -0.0784839988
-0.0072591016 0.1856973736 -0.0784839988
-0.0071909962 0.1864361173 -0.0784839988
-0.0072530859 0.1878581858 -0.0784839988
-0.0071676368 0.1891892422 -0.0784839988
-0.0071870508 0.1878532733 -0.0784839988
0.0017988926 0.1829443842 -0.0784839988
0.0014459707 0.1823618682 -0.0784839988
0.0011638828 0.1828242654 -0.0784839988
0.0021192246 0.1819734642 -0.0784839988
0.0017442246 0.1810652610 -0.0784839988
0.0016560586 0.1817250960 -0.0784839988
0.0009618926 0.1809172746 -0.0784839988
0.0007018828 0.1817053590 -0.0784839988
0.0011429707 0.1816280400 -0.0784839988
-0.0161542757 0.1737363631 -0.0784839988
-0.0138934417 0.1747158858 -0.0784839988
-0.0023417754 0.1792234247 -0.0784839988
-0.0339536081 0.1668283169 -0.0784839988
-0.0345886179 0.1667081981 -0.0784839988
-0.0255670298 0.1701852840 -0.0784839988
-0.0175716176 0.1734682580 -0.0784839988
-0.0031241075 0.1790754384 -0.0784839988
-0.0144065296 0.1746188298 -0.0784839988
0.0022511544 0.2053021395 -0.0784839988
0.0032718595 0.2035021413 -0.0784839988
0.0018297676 0.2057926154 -0.0784839988
0.0049735255 0.2009095339 -0.0784839988
0.0067618556 0.1978345833 -0.0784839988
0.0050573107 0.2006212766 -0.0784839988
0.0062427071 0.1984388496 -0.0784839988
0.0040329903 0.2020042762 -0.0784839988
0.0047168302 0.2010175811 -0.0784839988
0.0080563907 0.1921279167 -0.0784839988
0.0078486856 0.1901750308 -0.0784839988
0.0076928653 0.1915949565 -0.0784839988
0.0082284375 0.1890834086 -0.0784839988
0.0080045605 0.1860792566 -0.0784839988
0.0079615214 0.1881783079 -0.0784839988
0.0075566972 0.1854226496 -0.0784839988
0.0074170488 0.1878938413 -0.0784839988
0.0076677929 0.1877476760 -0.0784839988
0.0229247182 0.1770870179 -0.0784839988
0.0204670522 0.1779701991 -0.0784839988
0.0112906853 0.1833968339 -0.0784839988
0.0368099833 0.1686567176 -0.0784839988
0.0364464580 0.1681237574 -0.0784839988
0.0295736223 0.1724412359 -0.0784839988
0.0221133295 0.1758974506 -0.0784839988
0.0108428221 0.1827402268 -0.0784839988
0.0201733237 0.1775395672 -0.0784839988
0.0148402573 0.1721560894 -0.0784839988
0.0007272942 0.1687020663 -0.0784839988
-0.0123123305 0.1721560894 -0.0784839988
0.0304929130 0.1652480432 -0.0784839988
0.0160454029 0.1596408628 -0.0784839988
0.0109929970 0.1641714646 -0.0784839988
-0.0174065852 0.1596408628 -0.0784839988
-0.0301116629 0.1652480432 -0.0784839988
-0.0109462939 0.1641714646 -0.0784839988
-0.0002703516 0.1826004241 -0.0784839988
-0.0007620508 0.1821292630 -0.0784839988
-0.0009153711 0.1826482744 -0.0784839988
-0.0002113984 0.1815807759 -0.0784839988
-0.0008085664 0.1808009896 -0.0784839988
-0.0007233867 0.1814605327 -0.0784839988
-0.0016032305 0.1808599413 -0.0784839988
-0.0016510821 0.1816875778 -0.0784839988
-0.0012445625 0.1814991958 -0.0784839988
-0.0033744453 0.1831624371 -0.0784839988
-0.0037214493 0.1827461343 -0.0784839988
-0.0039833321 0.1833745968 -0.0784839988
-0.0030844922 0.1819869815 -0.0784839988
-0.0034580274 0.1812450375 -0.0784839988
-0.0035312852 0.1819752186 -0.0784839988
-0.0042081759 0.1815064182 -0.0784839988
-0.0044435274 0.1824605218 -0.0784839988
-0.0040232657 0.1821466436 -0.0784839988
-0.0027637676 0.2074678631 -0.0784839988
-0.0049869394 0.2079615970 -0.0784839988
-0.0050311015 0.2100393939 -0.0784839988
-0.0035460996 0.2042997371 -0.0784839988
-0.0064484433 0.2042997371 -0.0784839988
-0.0055000273 0.2058838001 -0.0784839988
-0.0092417987 0.2074678631 -0.0784839988
-0.0086067889 0.2100393939 -0.0784839988
-0.0073320331 0.2079615970 -0.0784839988
-0.0104834979 0.2061645377 -0.0784839988
-0.0098405780 0.2040664612 -0.0784839988
-0.0109722674 0.2057416845 -0.0784839988
-0.0084078066 0.2026517154 -0.0784839988
-0.0072117618 0.1993775454 -0.0784839988
-0.0084792480 0.2017625972 -0.0784839988
-0.0078139258 0.1988565902 -0.0784839988
-0.0094987402 0.2017079071 -0.0784839988
-0.0088741738 0.2014209318 -0.0784839988
-0.0059172071 0.1849671183 -0.0784839988
-0.0061870977 0.1844550542 -0.0784839988
-0.0064518750 0.1853306433 -0.0784839988
-0.0055929650 0.1833555337 -0.0784839988
-0.0058644494 0.1824109543 -0.0784839988
-0.0059744454 0.1833981058 -0.0784839988
-0.0065231603 0.1828588171 -0.0784839988
-0.0067863438 0.1841669215 -0.0784839988
-0.0064064571 0.1836918341 -0.0784839988
-0.0077814355 0.1941204917 -0.0784839988
-0.0076607070 0.1916310510 -0.0784839988
-0.0077863184 0.1923665857 -0.0784839988
-0.0075320879 0.1919759223 -0.0784839988
-0.0073345781 0.1884812944 -0.0784839988
-0.0074971738 0.1902245476 -0.0784839988
-0.0073405938 0.1863204822 -0.0784839988
-0.0075429864 0.1880612042 -0.0784839988
-0.0075011192 0.1888073916 -0.0784839988
-0.0179402660 0.1734474447 -0.0784839988
-0.0158094417 0.1745396236 -0.0784839988
-0.0047727853 0.1789823566 -0.0784839988
-0.0349572664 0.1666873848 -0.0784839988
-0.0356022859 0.1667352352 -0.0784839988
-0.0269699420 0.1701060778 -0.0784839988
-0.0193799496 0.1735542466 -0.0784839988
-0.0055674493 0.1790413082 -0.0784839988
-0.0163306175 0.1745782866 -0.0784839988
0.0090500213 0.2061877253 -0.0784839988
0.0068379120 0.2068722872 -0.0784839988
0.0068403045 0.2097531519 -0.0784839988
0.0081967051 0.2017951197 -0.0784839988
0.0052943614 0.2017951197 -0.0784839988
0.0062782695 0.2039914225 -0.0784839988
0.0025719903 0.2061877253 -0.0784839988
0.0032646171 0.2097531519 -0.0784839988
0.0044928183 0.2068722872 -0.0784839988
0.0088296169 0.1915257752 -0.0784839988
0.0086295545 0.1923589265 -0.0784839988
0.0086899686 0.1939969669 -0.0784839988
0.0086551639 0.1891986319 -0.0784839988
0.0083739140 0.1897809086 -0.0784839988
0.0085151405 0.1908326831 -0.0784839988
0.0082018672 0.1928254168 -0.0784839988
0.0083434687 0.1947143318 -0.0784839988
0.0084023046 0.1928294060 -0.0784839988
0.0235689743 0.1787785949 -0.0784839988
0.0212731442 0.1797164318 -0.0784839988
0.0122984668 0.1856213711 -0.0784839988
0.0371904542 0.1695963423 -0.0784839988
0.0369763427 0.1689859913 -0.0784839988
0.0302067122 0.1736943050 -0.0784839988
0.0230910776 0.1774162916 -0.0784839988
0.0120346815 0.1848694187 -0.0784839988
0.0211001422 0.1792232682 -0.0784839988
0.0091456112 0.1916002041 -0.0784839988
0.0090172752 0.1903194450 -0.0784839988
0.0089314997 0.1909898531 -0.0784839988
0.0092349434 0.1900250132 -0.0784839988
0.0090933419 0.1881360982 -0.0784839988
0.0090758633 0.1892863653 -0.0784839988
0.0088295566 0.1873841458 -0.0784839988
0.0087570467 0.1886627098 -0.0784839988
0.0089028612 0.1887932017 -0.0784839988
0.0118845200 0.1573901713 -0.0784839988
-0.0048414740 0.1574849524 -0.0784839988
0.0118845200 0.1578838232 -0.0784839988
-0.0215674681 0.1567819921 -0.0784839988
-0.0487200559 0.1567819921 -0.0784839988
-0.0267807650 0.1570860817 -0.0784839988
-0.0487200559 0.1573901713 -0.0784839988
-0.0215674681 0.1578838232 -0.0784839988
-0.0267807650 0.1574849524 -0.0784839988
-0.0197410746 0.1736291295 -0.0784839988
-0.0177048988 0.1748632576 -0.0784839988
-0.0071824806 0.1793762011 -0.0784839988
-0.0359634109 0.1668101180 -0.0784839988
-0.0365722977 0.1670222777 -0.0784839988
-0.0283442233 0.1703910488 -0.0784839988
-0.0211001099 0.1741026698 -0.0784839988
-0.0079326291 0.1796375818 -0.0784839988
-0.0181968793 0.1750346826 -0.0784839988
-0.0214294536 0.1742684670 -0.0784839988
-0.0194502153 0.1756656330 -0.0784839988
-0.0094055276 0.1803790636 -0.0784839988
