0.2868271327 0.0906160027 -0.0836221448
0.2873859542 0.0906160027 -0.0828925000
0.1525019115 0.0906160027 -0.0853833533
-0.1626209810 0.0906160027 -0.0964030912
0.1043821221 0.0906160027 -0.0864224547
-0.1631811311 0.0906160027 -0.0956734464
-0.1699317381 0.0906160027 -0.0827527734
-0.1695794885 0.0906160027 -0.0819035074
-0.4213187734 0.0906160027 -0.0836647160
-0.4498978594 0.0906160027 -0.0038911559
-0.4508102459 0.0906160027 -0.0037710941
-0.4498978594 0.0906160027 -0.0672947482
-0.4509716139 0.0906160027 0.0018610934
-0.4518826850 0.0906160027 0.0653847507
-0.4518826850 0.0906160027 0.0019811584
-0.1636544283 0.0906160027 0.0926186008
-0.1637753747 0.0906160027 0.0917066549
0.1028768140 0.0906160027 0.0808767524
0.1264636496 0.0906160027 -0.0030800187
0.1263427031 0.0906160027 -0.0039915239
0.1264636496 0.0906160027 -0.0735284582
-0.1705716579 0.0906160027 0.0050293291
-0.4223109428 0.0906160027 0.0772389771
-0.1700124023 0.0906160027 0.0042996843
-0.1626209810 0.0906160027 0.0944930938
-0.1631811311 0.0906160027 0.0937634489
0.1043821221 0.0906160027 0.0845124539
0.2859825050 0.0906160027 0.0057031335
0.1510984622 0.0906160027 0.0786424264
0.2867130312 0.0906160027 0.0051434307
0.2874665794 0.0906160027 -0.0827527734
0.2878188224 0.0906160027 -0.0819035074
0.1534936012 0.0906160027 -0.0836647160
-0.1695377303 0.0906160027 -0.0817476483
-0.1694181125 0.0906160027 -0.0808357057
-0.4208051478 0.0906160027 -0.0817476483
-0.4479000495 0.0906160027 -0.0041540258
-0.4487488715 0.0906160027 -0.0038022235
-0.4479000495 0.0906160027 -0.0677977449
-0.4489047306 0.0906160027 0.0018504717
-0.4498171172 0.0906160027 0.0653741258
-0.4498171172 0.0906160027 0.0017304067
-0.1632617563 0.0906160027 0.0936237226
-0.1636126707 0.0906160027 0.0927744600
0.1033904324 0.0906160027 0.0827938201
0.1265952992 0.0906160027 0.0021621871
0.1264743528 0.0906160027 0.0716991214
0.1264743528 0.0906160027 0.0030736923
-0.1699317381 0.0906160027 0.0041599579
-0.4213187734 0.0906160027 0.0755203433
-0.1695794885 0.0906160027 0.0033106953
0.2868271327 0.0906160027 0.0050293291
0.1525019115 0.0906160027 0.0772389771
0.2873859542 0.0906160027 0.0042996843
0.2878605800 0.0906160027 -0.0817476483
0.2879801978 0.0906160027 -0.0808357057
0.1540072196 0.0906160027 -0.0817476483
-0.1694075269 0.0906160027 -0.0745206276
-0.1694075269 0.0906160027 -0.0040721881
-0.4206749444 0.0906160027 -0.0040721881
-0.4461062987 0.0906160027 -0.0044119409
-0.4468363842 0.0906160027 -0.0038517973
-0.4461062987 0.0906160027 -0.0687592613
-0.4469761106 0.0906160027 0.0018610934
-0.4478249325 0.0906160027 0.0658566148
-0.4478249325 0.0906160027 0.0015092944
0.1269879712 0.0906160027 0.0011566210
0.1269879712 0.0906160027 0.0697820501
0.1266370568 0.0906160027 0.0020063276
-0.1695377303 0.0906160027 0.0031548361
-0.4208051478 0.0906160027 0.0736032756
-0.1694181125 0.0906160027 0.0022428902
0.2874665794 0.0906160027 0.0041599579
0.1534936012 0.0906160027 0.0755203433
0.2878188224 0.0906160027 0.0033106953
0.2879907835 0.0906160027 -0.0745206276
0.2879907835 0.0906160027 -0.0040721881
0.1541374230 0.0906160027 -0.0040721881
-0.4430412025 0.0906160027 0.0011700177
-0.4429215847 0.0906160027 0.0020815229
-0.4430412025 0.0906160027 0.0716184572
-0.4453116038 0.0906160027 0.0018922260
-0.4460416894 0.0906160027 0.0667996901
-0.4460416894 0.0906160027 0.0013320825
0.1273699399 0.0906160027 -0.0039915239
0.1270190256 0.0906160027 -0.0048412305
0.1270190256 0.0906160027 -0.0717672464
0.2878605800 0.0906160027 0.0031548361
0.1540072196 0.0906160027 0.0736032756
0.2879801978 0.0906160027 0.0022428902
0.1421617895 0.0906160027 0.0011700177
0.1422814073 0.0906160027 0.0020815229
0.1421617895 0.0906160027 0.0716184572
0.1353051326 0.0906160027 -0.0038911559
0.1343927460 0.0906160027 -0.0037710941
0.1353051326 0.0906160027 -0.0672947482
0.1373029425 0.0906160027 -0.0041540258
0.1364541205 0.0906160027 -0.0038022235
0.1373029425 0.0906160027 -0.0677977449
0.1332396890 0.0906160027 -0.0036404039
0.1323286245 0.0906160027 -0.0037604656
0.1332396890 0.0906160027 -0.0672841230
0.1390971729 0.0906160027 -0.0044119409
0.1383666467 0.0906160027 -0.0038517973
0.1390971729 0.0906160027 -0.0687592613
0.1321727647 0.0906160027 -0.0038022235
0.1313226142 0.0906160027 -0.0041540258
0.1313226142 0.0906160027 -0.0677977449
-0.4430517881 0.0906160027 -0.0049836933
-0.4431714059 0.0906160027 -0.0040721881
-0.4430517881 0.0906160027 -0.0736091224
-0.4446382473 0.0906160027 -0.0046455328
-0.4451975028 0.0906160027 -0.0039163287
-0.4446382473 0.0906160027 -0.0701131404
0.1280107152 0.0906160027 -0.0031225932
0.1274505651 0.0906160027 -0.0038517973
0.1280107152 0.0906160027 -0.0700486090
0.1362982614 0.0906160027 0.0018504717
0.1353858748 0.0906160027 0.0653741258
0.1353858748 0.0906160027 0.0017304067
0.1342313787 0.0906160027 0.0018610934
0.1333203142 0.0906160027 0.0653847507
0.1333203142 0.0906160027 0.0019811584
0.1312473796 0.0906160027 0.0015092944
0.1312473796 0.0906160027 0.0658566148
0.1303972290 0.0906160027 0.0018610934
0.1302574637 0.0906160027 0.0019417963
0.1295282661 0.0906160027 0.0668492603
0.1295282661 0.0906160027 0.0025019398
0.1421512038 0.0906160027 -0.0049836933
0.1420315860 0.0906160027 -0.0040721881
0.1421512038 0.0906160027 -0.0736091224
0.1382268814 0.0906160027 0.0018610934
0.1373780594 0.0906160027 0.0658566148
0.1373780594 0.0906160027 0.0015092944
0.1398923475 0.0906160027 0.0018922260
0.1391618213 0.0906160027 0.0667996901
0.1391618213 0.0906160027 0.0013320825
-0.4432131641 0.0906160027 0.0020063276
-0.4435654137 0.0906160027 0.0697820501
-0.4435654137 0.0906160027 0.0011566210
-0.4440295000 0.0906160027 0.0019417963
-0.4445887556 0.0906160027 0.0681386080
-0.4445887556 0.0906160027 0.0012125921
0.1286204362 0.0906160027 0.0020063276
0.1280602860 0.0906160027 0.0682031394
0.1280602860 0.0906160027 0.0027355318
0.1294637353 0.0906160027 -0.0032420835
0.1287345377 0.0906160027 -0.0038022271
0.1294637353 0.0906160027 -0.0687096911
0.1419898284 0.0906160027 0.0020063276
0.1416375854 0.0906160027 0.0697820501
0.1416375854 0.0906160027 0.0011566210
0.1405652706 0.0906160027 -0.0046455328
0.1400064491 0.0906160027 -0.0039163287
0.1405652706 0.0906160027 -0.0701131404
-0.4435965862 0.0906160027 -0.0048412305
-0.4439488358 0.0906160027 -0.0039915239
-0.4435965862 0.0906160027 -0.0717672464
0.1416064135 0.0906160027 -0.0048412305
0.1412541704 0.0906160027 -0.0039915239
0.1416064135 0.0906160027 -0.0717672464
0.1411735453 0.0906160027 0.0019417963
0.1406147238 0.0906160027 0.0681386080
0.1406147238 0.0906160027 0.0012125921
-0.1733139280 0.0985959992 -0.0051112859
-0.3130375384 0.0985959992 -0.0051112859
-0.3130375384 0.0985959992 -0.0990434188
-0.4651260701 0.0985959992 0.0032012923
-0.3254024597 0.0985959992 0.0032012923
-0.3254024597 0.0985959992 0.0971334252
-0.1359074441 0.0985959992 0.0032012923
0.1470622136 0.0985959992 0.0032012923
0.1470622136 0.0985959992 0.0971334252
-0.2879959758 0.0985959992 -0.1073559970
-0.0050263181 0.0985959992 -0.1073559970
0.1346972923 0.0985959992 -0.1073559970
-0.4774909914 0.0947618602 0.0971334252
-0.4774909914 0.0947618602 0.0032012923
-0.4774909914 0.0982842806 0.0032012923
0.1346972923 0.0985959992 0.1054460034
-0.0050263181 0.0985959992 0.1054460034
-0.2879959758 0.0985959992 0.1054460034
0.4550734338 0.0985959992 -0.0051112859
0.1721037762 0.0985959992 -0.0051112859
0.1721037762 0.0985959992 -0.0990434188
0.0200152445 0.0982842806 -0.1073559970
0.0200152445 0.0947618602 -0.1073559970
0.4427085125 0.0947618602 -0.1073559970
-0.4774909914 0.0944501416 -0.0990434188
-0.4774909914 0.0944501416 -0.0051112859
-0.4774909914 0.0909277213 -0.0051112859
-0.0173912394 0.0982842806 0.1054460034
-0.0173912394 0.0947618602 0.1054460034
-0.4400845075 0.0947618602 0.1054460034
0.4801149964 0.0947618602 -0.0990434188
0.4801149964 0.0947618602 -0.0051112859
0.4801149964 0.0982842806 -0.0051112859
-0.0173912394 0.0909277213 -0.1073559970
-0.0173912394 0.0944501416 -0.1073559970
-0.4400845075 0.0944501416 -0.1073559970
-0.4685446707 0.0906160027 0.0076696606
-0.4685446707 0.0906160027 -0.0862624724
-0.4767636482 0.0906160027 -0.0040721845
0.0200152445 0.0909277213 0.1054460034
0.0200152445 0.0944501416 0.1054460034
0.4427085125 0.0944501416 0.1054460034
0.4801149964 0.0944501416 0.0971334252
0.4801149964 0.0944501416 0.0032012923
0.4801149964 0.0909277213 0.0032012923
0.0072347742 0.0906160027 -0.0984091895
0.4299280422 0.0906160027 -0.0984091895
0.0189761819 0.0906160027 -0.1066286142
-0.4594667004 0.0906160027 -0.0827867496
-0.4676856779 0.0906160027 -0.0945285947
-0.4678066244 0.0906160027 -0.0936166521
-0.4678173276 0.0906160027 0.0149431371
-0.4678173276 0.0906160027 0.0853915766
-0.4595983501 0.0906160027 0.0032012887
0.0189761819 0.0906160027 0.1047186204
0.4299280422 0.0906160027 0.0964991923
0.0072347742 0.0906160027 0.0964991923
0.4711686758 0.0906160027 -0.0095796577
0.4711686758 0.0906160027 0.0843524752
0.4793876533 0.0906160027 0.0021621906
0.4672876329 0.0906160027 -0.0975515998
0.4663761277 0.0906160027 -0.0976712208
0.4555462252 0.0906160027 -0.0893321750
0.4161549300 0.0906160027 -0.0893321750
0.0061150090 0.0906160027 -0.0976712208
0.0052030697 0.0906160027 -0.0975515998
-0.4589530749 0.0906160027 -0.0847038173
-0.4672929988 0.0906160027 -0.0955337198
-0.4676439198 0.0906160027 -0.0946844539
-0.4588603037 0.0011522380 -0.0808357057
-0.4587393573 0.0011522380 -0.0817476483
-0.4587393573 0.0833425259 -0.0817476483
-0.4678066244 0.0906160027 0.0917066549
-0.4676856779 0.0906160027 0.0926186008
-0.4594667004 0.0906160027 0.0808767524
-0.4588603037 0.0906160027 -0.0039915239
-0.4587393573 0.0906160027 -0.0030800187
-0.4587393573 0.0906160027 -0.0735284582
0.4663761277 0.0906160027 0.0957612234
0.4672876329 0.0906160027 0.0956416023
0.4555462252 0.0906160027 0.0874221743
0.0052030697 0.0906160027 0.0956416023
0.0061150090 0.0906160027 0.0957612234
0.4161549300 0.0906160027 0.0874221743
0.4703106424 0.0906160027 0.0926186008
0.4704307074 0.0906160027 0.0917066549
0.4620916649 0.0906160027 0.0808767524
0.4704413327 0.0906160027 -0.0168531345
0.4704413327 0.0906160027 -0.0873015740
0.4622223552 0.0906160027 -0.0051112894
0.4682931954 0.0906160027 -0.0971575989
0.4674434920 0.0906160027 -0.0975098419
0.4574632929 0.0906160027 -0.0888185530
0.4545878267 0.0833425259 -0.0885942063
0.4545878267 0.0011522380 -0.0885942063
0.4554993319 0.0011522380 -0.0884745853
0.4525223513 0.0833425259 -0.0886047923
0.4525223513 0.0011522380 -0.0886047923
0.4534342906 0.0011522380 -0.0887244134
0.4142378623 0.0906160027 -0.0888185530
0.0050472105 0.0906160027 -0.0975098419
0.0041979413 0.0906160027 -0.0971575989
-0.4579613924 0.0906160027 -0.0864224547
-0.4666522372 0.0906160027 -0.0964030912
-0.4672123742 0.0906160027 -0.0956734464
-0.4585659495 0.0011522380 -0.0828961529
-0.4582150285 0.0011522380 -0.0837454188
-0.4582150285 0.0833425259 -0.0837454188
-0.4586077076 -0.0061212388 -0.0827402938
-0.4587286541 -0.0061212388 -0.0818283512
-0.4587286541 -0.0883115267 -0.0818283512
-0.4588603037 -0.0061212388 -0.0806743386
-0.4587393573 -0.0061212388 -0.0797628334
-0.4587393573 -0.0883115267 -0.0797628334
-0.4676439198 0.0906160027 0.0927744600
-0.4672929988 0.0906160027 0.0936237226
-0.4589530749 0.0906160027 0.0827938201
-0.4586077076 0.0011522380 0.0808302999
-0.4587286541 0.0011522380 0.0799183540
-0.4587286541 0.0833425259 0.0799183540
-0.4587286541 0.0906160027 0.0716991214
-0.4586077076 0.0906160027 0.0021621871
-0.4587286541 0.0906160027 0.0030736923
-0.4586077076 0.0011522380 -0.0787706641
-0.4587286541 0.0011522380 -0.0796821692
-0.4587286541 0.0833425259 -0.0796821692
0.4674434920 0.0906160027 0.0955998444
0.4682931954 0.0906160027 0.0952476014
0.4574632929 0.0906160027 0.0869085523
0.4545071626 0.0833425259 0.0866947912
0.4545071626 0.0011522380 0.0866947912
0.4535956574 0.0011522380 0.0868144123
0.0041979413 0.0906160027 0.0952476014
0.0050472105 0.0906160027 0.0955998444
0.4142378623 0.0906160027 0.0869085523
0.4524416487 0.0833425259 0.0866842053
0.4524416487 0.0011522380 0.0866842053
0.4515297094 0.0011522380 0.0865645842
0.4699170819 0.0906160027 0.0936237226
0.4702688842 0.0906160027 0.0927744600
0.4615780393 0.0906160027 0.0827938201
0.4614843868 0.0011522380 0.0789257049
0.4613643218 0.0011522380 0.0798376508
0.4613643218 0.0833425259 0.0798376508
0.4704307074 0.0906160027 -0.0936166521
0.4703106424 0.0906160027 -0.0945285947
0.4620916649 0.0906160027 -0.0827867496
0.4614843868 0.0906160027 0.0020815229
0.4613643218 0.0906160027 0.0011700177
0.4613643218 0.0906160027 0.0716184572
0.4691621258 0.0906160027 -0.0965171928
0.4684329217 0.0906160027 -0.0970768957
0.4591819267 0.0906160027 -0.0878259040
0.4565800894 0.0833425259 -0.0880494124
0.4565800894 0.0011522380 -0.0880494124
0.4574297927 0.0011522380 -0.0876971694
0.4545071626 -0.0883115267 -0.0886047923
0.4545071626 -0.0061212388 -0.0886047923
0.4535956574 -0.0061212388 -0.0887244134
0.4565048944 -0.0883115267 -0.0880805844
0.4565048944 -0.0061212388 -0.0880805844
0.4556551911 -0.0061212388 -0.0884328274
0.4524416487 -0.0883115267 -0.0885942063
0.4524416487 -0.0061212388 -0.0885942063
0.4515297094 -0.0061212388 -0.0884745853
0.4505245810 0.0833425259 -0.0880805844
0.4505245810 0.0011522380 -0.0880805844
0.4513738502 0.0011522380 -0.0884328274
0.4125192285 0.0906160027 -0.0878259040
0.0040582150 0.0906160027 -0.0970768957
0.0033285767 0.0906160027 -0.0965171928
-0.4565579502 0.0906160027 -0.0878259040
-0.4658089321 0.0906160027 -0.0970768957
-0.4665381362 0.0906160027 -0.0965171928
-0.4577524280 0.0011522380 -0.0848095677
-0.4571922910 0.0011522380 -0.0855392125
-0.4571922910 0.0833425259 -0.0855392125
-0.4578330526 -0.0061212388 -0.0846698410
-0.4581839736 -0.0061212388 -0.0838205751
-0.4581839736 -0.0883115267 -0.0838205751
-0.4587286541 -0.0955850035 -0.0798435363
-0.4586077076 -0.0955850035 -0.0807554789
-0.4587286541 -0.0955850035 -0.0816669841
-0.4672123742 0.0906160027 0.0937634489
-0.4666522372 0.0906160027 0.0944930938
-0.4579613924 0.0906160027 0.0845124539
-0.4578330526 0.0011522380 0.0827598403
-0.4581839736 0.0011522380 0.0819105777
-0.4581839736 0.0833425259 0.0819105777
-0.4588603037 -0.0061212388 0.0789257049
-0.4587393573 -0.0061212388 0.0798376508
-0.4587393573 -0.0883115267 0.0798376508
-0.4585659495 -0.0061212388 0.0809861590
-0.4582150285 -0.0061212388 0.0818354217
-0.4582150285 -0.0883115267 0.0818354217
-0.4585659495 0.0906160027 -0.0039163287
-0.4582150285 0.0906160027 -0.0030666220
-0.4582150285 0.0906160027 -0.0716920512
-0.4588603037 0.0011522380 0.0787643376
-0.4587393573 0.0011522380 0.0778528324
-0.4587393573 0.0833425259 0.0778528324
-0.4585659495 -0.0061212388 -0.0786148046
-0.4582150285 -0.0061212388 -0.0777650980
-0.4582150285 -0.0883115267 -0.0777650980
0.4684329217 0.0906160027 0.0951668982
0.4691621258 0.0906160027 0.0946071954
0.4591819267 0.0906160027 0.0859159032
0.4565048944 0.0833425259 0.0861705833
0.4565048944 0.0011522380 0.0861705833
0.4556551911 0.0011522380 0.0865228263
0.4545878267 -0.0883115267 0.0866842053
0.4545878267 -0.0061212388 0.0866842053
0.4554993319 -0.0061212388 0.0865645842
0.4525223513 -0.0883115267 0.0866947912
0.4525223513 -0.0061212388 0.0866947912
0.4534342906 -0.0061212388 0.0868144123
0.0033285767 0.0906160027 0.0946071954
0.0040582150 0.0906160027 0.0951668982
0.4125192285 0.0906160027 0.0859159032
0.4504494244 0.0833425259 0.0861394114
0.4504494244 0.0011522380 0.0861394114
0.4496001552 0.0011522380 0.0857871684
0.4505245810 -0.0883115267 0.0861705833
0.4505245810 -0.0061212388 0.0861705833
0.4513738502 -0.0061212388 0.0865228263
0.4692762280 0.0906160027 0.0944930938
0.4698363781 0.0906160027 0.0937634489
0.4605853831 0.0906160027 0.0845124539
0.4611918733 0.0011522380 0.0809861590
0.4608400710 0.0011522380 0.0818354217
0.4608400710 0.0833425259 0.0818354217
0.4612336315 -0.0061212388 0.0808302999
0.4613536965 -0.0061212388 0.0799183540
0.4613536965 -0.0883115267 0.0799183540
0.4614843868 -0.0061212388 0.0787643376
0.4613643218 -0.0061212388 0.0778528324
0.4613643218 -0.0883115267 0.0778528324
0.4702688842 0.0906160027 -0.0946844539
0.4699170819 0.0906160027 -0.0955337198
0.4615780393 0.0906160027 -0.0847038173
0.4612336315 0.0011522380 -0.0827402938
0.4613536965 0.0011522380 -0.0818283512
0.4613536965 0.0833425259 -0.0818283512
0.4612336315 0.0906160027 -0.0040721881
0.4613536965 0.0906160027 -0.0049836933
0.4613536965 0.0906160027 -0.0736091224
0.4612336315 0.0011522380 0.0768606630
0.4613536965 0.0011522380 0.0777721682
0.4613536965 0.0833425259 0.0777721682
0.4698363781 0.0906160027 -0.0956734464
0.4692762280 0.0906160027 -0.0964030912
0.4605853831 0.0906160027 -0.0864224547
0.4583632546 0.0833425259 -0.0870072321
0.4583632546 0.0011522380 -0.0870072321
0.4590924587 0.0011522380 -0.0864475293
0.4582987232 -0.0883115267 -0.0870567634
0.4582987232 -0.0061212388 -0.0870567634
0.4575695191 -0.0061212388 -0.0876164662
0.4535956574 -0.0955850035 -0.0810561319
0.4545071626 -0.0955850035 -0.0809365108
0.4545071626 -0.0955850035 -0.0879813548
0.4556551911 -0.0955850035 -0.0810254396
0.4565048944 -0.0955850035 -0.0806731966
0.4565048944 -0.0955850035 -0.0874783577
0.4515297094 -0.0955850035 -0.0810671975
0.4524416487 -0.0955850035 -0.0811868186
0.4524416487 -0.0955850035 -0.0879919797
0.4504494244 -0.0883115267 -0.0880494124
0.4504494244 -0.0061212388 -0.0880494124
0.4496001552 -0.0061212388 -0.0876971694
0.4487307906 0.0833425259 -0.0870567634
0.4487307906 0.0011522380 -0.0870567634
0.4494604289 0.0011522380 -0.0876164662
0.4111157864 0.0906160027 -0.0864224547
0.0032144757 0.0906160027 -0.0964030912
0.0026547728 0.0906160027 -0.0956734464
-0.4548388296 0.0906160027 -0.0888185530
-0.4648190156 0.0906160027 -0.0975098419
-0.4656691662 0.0906160027 -0.0971575989
-0.4556747479 0.0833425259 -0.0870567634
-0.4556747479 0.0011522380 -0.0870567634
-0.4549455438 0.0011522380 -0.0876164662
-0.4565825844 -0.0061212388 -0.0863334277
-0.4571427214 -0.0061212388 -0.0856037828
-0.4571427214 -0.0883115267 -0.0856037828
-0.4585659495 -0.0955850035 -0.0809113381
-0.4582150285 -0.0955850035 -0.0817606040
-0.4582150285 -0.0955850035 -0.0835840518
-0.4665381362 0.0906160027 0.0946071954
-0.4658089321 0.0906160027 0.0951668982
-0.4565579502 0.0906160027 0.0859159032
-0.4565825844 0.0011522380 0.0844234267
-0.4571427214 0.0011522380 0.0836937818
-0.4571427214 0.0833425259 0.0836937818
-0.4577524280 -0.0061212388 0.0828995666
-0.4571922910 -0.0061212388 0.0836292115
-0.4571922910 -0.0883115267 0.0836292115
-0.4587286541 -0.0955850035 0.0797569866
-0.4586077076 -0.0955850035 0.0788454814
-0.4587286541 -0.0955850035 0.0779335356
-0.4581839736 -0.0955850035 0.0815988590
-0.4578330526 -0.0955850035 0.0789257014
-0.4581839736 -0.0955850035 0.0780764387
-0.4581839736 0.0906160027 0.0698572454
-0.4578330526 0.0906160027 0.0020815229
-0.4581839736 0.0906160027 0.0029312295
-0.4578330526 0.0011522380 -0.0768401961
-0.4581839736 0.0011522380 -0.0776899027
-0.4581839736 0.0833425259 -0.0776899027
-0.4586077076 -0.0061212388 0.0768606630
-0.4587286541 -0.0061212388 0.0777721682
-0.4587286541 -0.0883115267 0.0777721682
-0.4581839736 -0.0955850035 -0.0780016213
-0.4578330526 -0.0955850035 -0.0806743350
-0.4581839736 -0.0955850035 -0.0815240417
0.4582987232 0.0833425259 0.0851467623
0.4582987232 0.0011522380 0.0851467623
0.4575695191 0.0011522380 0.0857064652
0.4565800894 -0.0883115267 0.0861394114
0.4565800894 -0.0061212388 0.0861394114
0.4574297927 -0.0061212388 0.0857871684
0.4545878267 -0.0955850035 0.0860819790
0.4554993319 -0.0955850035 0.0791572001
0.4545878267 -0.0955850035 0.0792768211
0.4525223513 -0.0955850035 0.0860713537
0.4534342906 -0.0955850035 0.0791461309
0.4525223513 -0.0955850035 0.0790265098
0.0026547728 0.0906160027 0.0937634489
0.0032144757 0.0906160027 0.0944930938
0.4111157864 0.0906160027 0.0845124539
0.4486662209 0.0833425259 0.0850972311
0.4486662209 0.0011522380 0.0850972311
0.4479365826 0.0011522380 0.0845375282
0.4487307906 -0.0883115267 0.0851467623
0.4487307906 -0.0061212388 0.0851467623
0.4494604289 -0.0061212388 0.0857064652
0.4505245810 -0.0955850035 0.0855683570
0.4513738502 -0.0955850035 0.0791154422
0.4505245810 -0.0955850035 0.0787631992
0.4603764319 0.0011522380 0.0828995666
0.4598162818 0.0011522380 0.0836292115
0.4598162818 0.0833425259 0.0836292115
0.4604571357 -0.0061212388 0.0827598403
0.4608089380 -0.0061212388 0.0819105777
0.4608089380 -0.0883115267 0.0819105777
0.4613536965 -0.0955850035 0.0779335356
0.4612336315 -0.0955850035 0.0788454814
0.4613536965 -0.0955850035 0.0797569866
0.4604571357 0.0011522380 -0.0846698410
0.4608089380 0.0011522380 -0.0838205751
0.4608089380 0.0833425259 -0.0838205751
0.4614843868 -0.0061212388 -0.0808357057
0.4613643218 -0.0061212388 -0.0817476483
0.4613643218 -0.0883115267 -0.0817476483
0.4611918733 -0.0061212388 -0.0828961529
0.4608400710 -0.0061212388 -0.0837454188
0.4608400710 -0.0883115267 -0.0837454188
0.4608400710 0.0906160027 0.0697820501
0.4611918733 0.0906160027 0.0020063276
0.4608400710 0.0906160027 0.0011566210
0.4614843868 0.0011522380 -0.0806743386
0.4613643218 0.0011522380 -0.0797628334
0.4613643218 0.0833425259 -0.0797628334
0.4611918733 -0.0061212388 0.0767048036
0.4608400710 -0.0061212388 0.0758550969
0.4608400710 -0.0883115267 0.0758550969
0.4592065609 0.0011522380 -0.0863334277
0.4597667110 0.0011522380 -0.0856037828
0.4597667110 0.0833425259 -0.0856037828
0.4575695191 -0.0955850035 -0.0809754287
0.4582987232 -0.0955850035 -0.0804157259
0.4582987232 -0.0955850035 -0.0865168416
0.4545878267 -0.0955850035 -0.0735185371
0.4554993319 -0.0955850035 -0.0804437600
0.4545878267 -0.0955850035 -0.0803236982
0.4525223513 -0.0955850035 -0.0735291231
0.4534342906 -0.0955850035 -0.0804539052
0.4525223513 -0.0955850035 -0.0805739670
0.4565800894 -0.0955850035 -0.0740009872
0.4574297927 -0.0955850035 -0.0804539052
0.4565800894 -0.0955850035 -0.0801021029
0.4505245810 -0.0955850035 -0.0740321591
0.4513738502 -0.0955850035 -0.0804855179
0.4505245810 -0.0955850035 -0.0808373202
0.4496001552 -0.0955850035 -0.0810561319
0.4504494244 -0.0955850035 -0.0814083749
0.4504494244 -0.0955850035 -0.0875094907
0.4486662209 -0.0883115267 -0.0870072321
0.4486662209 -0.0061212388 -0.0870072321
0.4479365826 -0.0061212388 -0.0864475293
0.4466535447 0.0011522380 -0.0848095677
0.4472132475 0.0011522380 -0.0855392125
0.4472132475 0.0833425259 -0.0855392125
0.4101236170 0.0906160027 -0.0847038173
0.0025741087 0.0906160027 -0.0955337198
0.0022223063 0.0906160027 -0.0946844539
-0.4529217476 0.0906160027 -0.0893321750
-0.4637520842 0.0906160027 -0.0976712208
-0.4646631553 0.0906160027 -0.0975515998
-0.4538803927 0.0833425259 -0.0880805844
-0.4538803927 0.0011522380 -0.0880805844
-0.4530302421 0.0011522380 -0.0884328274
-0.4557392793 -0.0883115267 -0.0870072321
-0.4557392793 -0.0061212388 -0.0870072321
-0.4564684834 -0.0061212388 -0.0864475293
-0.4539556273 -0.0883115267 -0.0880494124
-0.4539556273 -0.0061212388 -0.0880494124
-0.4548057779 -0.0061212388 -0.0876971694
-0.4577524280 -0.0955850035 -0.0809754287
-0.4571922910 -0.0955850035 -0.0817050736
-0.4571922910 -0.0955850035 -0.0852274939
-0.4656691662 0.0906160027 0.0952476014
-0.4648190156 0.0906160027 0.0955998444
-0.4548388296 0.0906160027 0.0869085523
-0.4557392793 0.0833425259 0.0850972311
-0.4557392793 0.0011522380 0.0850972311
-0.4564684834 0.0011522380 0.0845375282
-0.4571427214 -0.0955850035 0.0832529615
-0.4565825844 -0.0955850035 0.0790013370
-0.4571427214 -0.0955850035 0.0782716922
-0.4585659495 -0.0955850035 0.0786896220
-0.4582150285 -0.0955850035 0.0778399154
-0.4582150285 -0.0955850035 0.0760164643
-0.4577524280 -0.0955850035 0.0786246074
-0.4571922910 -0.0955850035 0.0778954032
-0.4571922910 -0.0955850035 0.0743729829
-0.4577524280 0.0906160027 -0.0038517973
-0.4571922910 0.0906160027 -0.0031225932
-0.4571922910 0.0906160027 -0.0700486090
-0.4585659495 0.0011522380 0.0767048036
-0.4582150285 0.0011522380 0.0758550969
-0.4582150285 0.0833425259 0.0758550969
-0.4577524280 -0.0061212388 -0.0767004695
-0.4571922910 -0.0061212388 -0.0759712653
-0.4571922910 -0.0883115267 -0.0759712653
0.4583632546 -0.0883115267 0.0850972311
0.4583632546 -0.0061212388 0.0850972311
0.4590924587 -0.0061212388 0.0845375282
0.4565048944 -0.0955850035 0.0855683570
0.4565048944 -0.0955850035 0.0787631992
0.4556551911 -0.0955850035 0.0791154422
0.4535956574 -0.0955850035 0.0785439045
0.4545071626 -0.0955850035 0.0786639696
0.4545071626 -0.0955850035 0.0716191256
0.4515297094 -0.0955850035 0.0785337625
0.4524416487 -0.0955850035 0.0784136975
0.4524416487 -0.0955850035 0.0716085397
0.0022223063 0.0906160027 0.0927744600
0.0025741087 0.0906160027 0.0936237226
0.4101236170 0.0906160027 0.0827938201
0.4478224816 0.0011522380 0.0844234267
0.4472627788 0.0011522380 0.0836937818
0.4472627788 0.0833425259 0.0836937818
0.4487307906 -0.0955850035 0.0846068406
0.4494604289 -0.0955850035 0.0790654277
0.4487307906 -0.0955850035 0.0785057248
0.4496001552 -0.0955850035 0.0785439045
0.4504494244 -0.0955850035 0.0781921055
0.4504494244 -0.0955850035 0.0720909897
0.4592065609 -0.0061212388 0.0844234267
0.4597667110 -0.0061212388 0.0836937818
0.4597667110 -0.0883115267 0.0836937818
0.4608400710 -0.0955850035 0.0816740543
0.4611918733 -0.0955850035 0.0790013406
0.4608400710 -0.0955850035 0.0798506032
0.4603764319 -0.0061212388 -0.0848095677
0.4598162818 -0.0061212388 -0.0855392125
0.4598162818 -0.0883115267 -0.0855392125
0.4613536965 -0.0955850035 -0.0816669841
0.4612336315 -0.0955850035 -0.0807554789
0.4613536965 -0.0955850035 -0.0798435363
0.4604571357 -0.0955850035 -0.0808357021
0.4608089380 -0.0955850035 -0.0799864362
0.4608089380 -0.0955850035 -0.0835088565
0.4604571357 0.0011522380 0.0749301951
0.4608089380 0.0011522380 0.0757799017
0.4608089380 0.0833425259 0.0757799017
0.4604571357 0.0906160027 -0.0039915239
0.4608089380 0.0906160027 -0.0048412305
0.4608089380 0.0906160027 -0.0717672464
0.4612336315 -0.0061212388 -0.0787706641
0.4613536965 -0.0061212388 -0.0796821692
0.4613536965 -0.0883115267 -0.0796821692
0.4604571357 -0.0955850035 0.0787643340
0.4608089380 -0.0955850035 0.0796140406
0.4608089380 -0.0955850035 0.0760916203
0.4583632546 -0.0955850035 -0.0749441050
0.4590924587 -0.0955850035 -0.0804855179
0.4583632546 -0.0955850035 -0.0799253743
0.4545878267 -0.0883115267 -0.0729163105
0.4545878267 -0.0061212388 -0.0729163105
0.4554993319 -0.0061212388 -0.0730363723
0.4525223513 -0.0883115267 -0.0729056855
0.4525223513 -0.0061212388 -0.0729056855
0.4534342906 -0.0061212388 -0.0727856238
0.4565800894 -0.0883115267 -0.0734610654
0.4565800894 -0.0061212388 -0.0734610654
0.4574297927 -0.0061212388 -0.0738128677
0.4505245810 -0.0883115267 -0.0734299325
0.4505245810 -0.0061212388 -0.0734299325
0.4513738502 -0.0061212388 -0.0730781301
0.4487307906 -0.0955850035 -0.0749936362
0.4494604289 -0.0955850035 -0.0805346084
0.4487307906 -0.0955850035 -0.0810947520
0.4479365826 -0.0955850035 -0.0810254396
0.4486662209 -0.0955850035 -0.0815851425
0.4486662209 -0.0955850035 -0.0865664118
0.4478224816 -0.0061212388 -0.0863334277
0.4472627788 -0.0061212388 -0.0856037828
0.4472627788 -0.0883115267 -0.0856037828
0.4465728805 -0.0061212388 -0.0846698410
0.4462210782 -0.0061212388 -0.0838205751
0.4462210782 -0.0883115267 -0.0838205751
0.4458381429 0.0011522380 -0.0828961529
0.4461899452 0.0011522380 -0.0837454188
0.4461899452 0.0833425259 -0.0837454188
0.4096099915 0.0906160027 -0.0827867496
0.0021805482 0.0906160027 -0.0945285947
0.0020604831 0.0906160027 -0.0936166521
-0.4509369220 0.0906160027 -0.0893321750
-0.4626783297 0.0906160027 -0.0975515998
-0.4635907162 0.0906160027 -0.0976712208
-0.4518826850 0.0833425259 -0.0886047923
-0.4518826850 0.0011522380 -0.0886047923
-0.4509716139 0.0011522380 -0.0887244134
-0.4519633107 -0.0883115267 -0.0885942063
-0.4519633107 -0.0061212388 -0.0885942063
-0.4528743818 -0.0061212388 -0.0884745853
-0.4556747479 -0.0955850035 -0.0804157259
-0.4549455438 -0.0955850035 -0.0809754287
-0.4556747479 -0.0955850035 -0.0865168416
-0.4548057779 -0.0955850035 -0.0810561319
-0.4539556273 -0.0955850035 -0.0814083749
-0.4539556273 -0.0955850035 -0.0875094907
-0.4571427214 -0.0955850035 -0.0763475543
-0.4565825844 -0.0955850035 -0.0805996195
-0.4571427214 -0.0955850035 -0.0813288236
-0.4646631553 0.0906160027 0.0956416023
-0.4637520842 0.0906160027 0.0957612234
-0.4529217476 0.0906160027 0.0874221743
-0.4539556273 0.0833425259 0.0861394114
-0.4539556273 0.0011522380 0.0861394114
-0.4548057779 0.0011522380 0.0857871684
-0.4556747479 -0.0883115267 0.0851467623
-0.4556747479 -0.0061212388 0.0851467623
-0.4549455438 -0.0061212388 0.0857064652
-0.4557392793 -0.0955850035 0.0846564108
-0.4557392793 -0.0955850035 0.0796751415
-0.4564684834 -0.0955850035 0.0791154386
-0.4578330526 -0.0061212388 0.0749301951
-0.4581839736 -0.0061212388 0.0757799017
-0.4581839736 -0.0883115267 0.0757799017
-0.4565825844 -0.0061212388 0.0732675288
-0.4571427214 -0.0061212388 0.0739967329
-0.4571427214 -0.0883115267 0.0739967329
-0.4571427214 0.0906160027 0.0682031394
-0.4565825844 0.0906160027 0.0020063276
-0.4571427214 0.0906160027 0.0027355318
-0.4565825844 0.0011522380 -0.0751775298
-0.4571427214 0.0011522380 -0.0759067340
-0.4571427214 0.0833425259 -0.0759067340
0.4583632546 -0.0955850035 0.0846564108
0.4590924587 -0.0955850035 0.0791154386
0.4583632546 -0.0955850035 0.0796751415
0.4565800894 -0.0955850035 0.0781921055
0.4574297927 -0.0955850035 0.0785439045
0.4565800894 -0.0955850035 0.0720909897
0.4545071626 -0.0883115267 0.0709956881
0.4545071626 -0.0061212388 0.0709956881
0.4535956574 -0.0061212388 0.0708756230
0.4524416487 -0.0883115267 0.0710063133
0.4524416487 -0.0061212388 0.0710063133
0.4515297094 -0.0061212388 0.0711263784
0.0020604831 0.0906160027 0.0917066549
0.0021805482 0.0906160027 0.0926186008
0.4096099915 0.0906160027 0.0808767524
0.4465728805 0.0011522380 0.0827598403
0.4462210782 0.0011522380 0.0819105777
0.4462210782 0.0833425259 0.0819105777
0.4466535447 -0.0061212388 0.0828995666
0.4472132475 -0.0061212388 0.0836292115
0.4472132475 -0.0883115267 0.0836292115
0.4479365826 -0.0955850035 0.0785755168
0.4486662209 -0.0955850035 0.0780153733
0.4486662209 -0.0955850035 0.0730341040
0.4504494244 -0.0883115267 0.0715510680
0.4504494244 -0.0061212388 0.0715510680
0.4496001552 -0.0061212388 0.0719028670
0.4598162818 -0.0955850035 0.0833174929
0.4603764319 -0.0955850035 0.0790654277
0.4598162818 -0.0955850035 0.0797950725
0.4592065609 -0.0955850035 -0.0809113381
0.4597667110 -0.0955850035 -0.0801816932
0.4597667110 -0.0955850035 -0.0851629626
0.4608400710 -0.0955850035 -0.0779264650
0.4611918733 -0.0955850035 -0.0805996195
0.4608400710 -0.0955850035 -0.0797499128
0.4598162818 -0.0955850035 -0.0762829839
0.4603764319 -0.0955850035 -0.0805346084
0.4598162818 -0.0955850035 -0.0798054043
0.4603764319 -0.0061212388 0.0747904684
0.4598162818 -0.0061212388 0.0740612643
0.4598162818 -0.0883115267 0.0740612643
0.4598162818 0.0906160027 0.0681386080
0.4603764319 0.0906160027 0.0019417963
0.4598162818 0.0906160027 0.0012125921
0.4611918733 0.0011522380 -0.0786148046
0.4608400710 0.0011522380 -0.0777650980
0.4608400710 0.0833425259 -0.0777650980
0.4583632546 -0.0883115267 -0.0745032847
0.4583632546 -0.0061212388 -0.0745032847
0.4590924587 -0.0061212388 -0.0750634283
0.4545071626 0.0833425259 -0.0729056855
0.4545071626 0.0011522380 -0.0729056855
0.4535956574 0.0011522380 -0.0727856238
0.4565048944 0.0833425259 -0.0734299325
0.4565048944 0.0011522380 -0.0734299325
0.4556551911 0.0011522380 -0.0730781301
0.4524416487 0.0833425259 -0.0729163105
0.4524416487 0.0011522380 -0.0729163105
0.4515297094 0.0011522380 -0.0730363723
0.4582987232 0.0833425259 -0.0744537145
0.4582987232 0.0011522380 -0.0744537145
0.4575695191 0.0011522380 -0.0738935709
0.4504494244 0.0833425259 -0.0734610654
0.4504494244 0.0011522380 -0.0734610654
0.4496001552 0.0011522380 -0.0738128677
0.4487307906 -0.0883115267 -0.0744537145
0.4487307906 -0.0061212388 -0.0744537145
0.4494604289 -0.0061212388 -0.0738935709
0.4472627788 -0.0955850035 -0.0763475543
0.4478224816 -0.0955850035 -0.0805996195
0.4472627788 -0.0955850035 -0.0813288236
0.4466535447 -0.0955850035 -0.0809754287
0.4472132475 -0.0955850035 -0.0817050736
0.4472132475 -0.0955850035 -0.0852274939
0.4458381429 -0.0955850035 -0.0809113381
0.4461899452 -0.0955850035 -0.0817606040
0.4461899452 -0.0955850035 -0.0835840518
0.4457963847 -0.0061212388 -0.0827402938
0.4456763197 -0.0061212388 -0.0818283512
0.4456763197 -0.0883115267 -0.0818283512
0.4455456294 0.0011522380 -0.0808357057
0.4456656944 0.0011522380 -0.0817476483
0.4456656944 0.0833425259 -0.0817476483
0.2599463753 0.0906160027 -0.0856282431
-0.0101072906 0.0906160027 -0.0938476678
-0.1474830681 0.0906160027 -0.0973700882
-0.4490198543 0.0906160027 -0.0888185530
-0.4616736486 0.0906160027 -0.0971575989
-0.4625224705 0.0906160027 -0.0975098419
-0.4498171172 0.0833425259 -0.0885942063
-0.4498171172 0.0011522380 -0.0885942063
-0.4489047306 0.0011522380 -0.0884745853
-0.4498978594 -0.0883115267 -0.0886047923
-0.4498978594 -0.0061212388 -0.0886047923
-0.4508102459 -0.0061212388 -0.0887244134
-0.4528743818 -0.0955850035 -0.0810671975
-0.4519633107 -0.0955850035 -0.0811868186
-0.4519633107 -0.0955850035 -0.0879919797
-0.4557392793 -0.0955850035 -0.0749441050
-0.4557392793 -0.0955850035 -0.0799253743
-0.4564684834 -0.0955850035 -0.0804855179
-0.4538803927 -0.0955850035 -0.0740321591
-0.4530302421 -0.0955850035 -0.0804855179
-0.4538803927 -0.0955850035 -0.0808373202
-0.4635907162 0.0906160027 0.0957612234
-0.4626783297 0.0906160027 0.0956416023
-0.4509369220 0.0906160027 0.0874221743
-0.4519633107 0.0833425259 0.0866842053
-0.4519633107 0.0011522380 0.0866842053
-0.4528743818 0.0011522380 0.0865645842
-0.4538803927 -0.0883115267 0.0861705833
-0.4538803927 -0.0061212388 0.0861705833
-0.4530302421 -0.0061212388 0.0865228263
-0.4556747479 -0.0955850035 0.0791847509
-0.4549455438 -0.0955850035 0.0786246074
-0.4556747479 -0.0955850035 0.0730836352
-0.4577524280 0.0011522380 0.0747904684
-0.4571922910 0.0011522380 0.0740612643
-0.4571922910 0.0833425259 0.0740612643
-0.4557392793 -0.0883115267 0.0725932837
-0.4557392793 -0.0061212388 0.0725932837
-0.4564684834 -0.0061212388 0.0731534272
-0.4564684834 0.0906160027 -0.0038022271
-0.4557392793 0.0906160027 -0.0032420835
-0.4557392793 0.0906160027 -0.0687096911
-0.4557392793 0.0833425259 -0.0745032847
-0.4557392793 0.0011522380 -0.0745032847
-0.4564684834 0.0011522380 -0.0750634283
0.4592065609 -0.0955850035 0.0786896184
0.4597667110 -0.0955850035 0.0794188226
0.4597667110 -0.0955850035 0.0744375532
0.4575695191 -0.0955850035 0.0786246074
0.4582987232 -0.0955850035 0.0791847509
0.4582987232 -0.0955850035 0.0730836352
0.4565048944 -0.0883115267 0.0715199353
0.4565048944 -0.0061212388 0.0715199353
0.4556551911 -0.0061212388 0.0711681363
0.4545878267 0.0833425259 0.0710063133
0.4545878267 0.0011522380 0.0710063133
0.4554993319 0.0011522380 0.0711263784
0.4525223513 0.0833425259 0.0709956881
0.4525223513 0.0011522380 0.0709956881
0.4534342906 0.0011522380 0.0708756230
0.4505245810 0.0833425259 0.0715199353
0.4505245810 0.0011522380 0.0715199353
0.4513738502 0.0011522380 0.0711681363
-0.1474830681 0.0906160027 0.0954600907
-0.0101072906 0.0906160027 0.0919376704
0.2599463753 0.0906160027 0.0837182423
0.4457963847 0.0011522380 0.0808302999
0.4456763197 0.0011522380 0.0799183540
0.4456763197 0.0833425259 0.0799183540
0.4458381429 -0.0061212388 0.0809861590
0.4461899452 -0.0061212388 0.0818354217
0.4461899452 -0.0883115267 0.0818354217
0.4472627788 -0.0955850035 0.0832529615
0.4478224816 -0.0955850035 0.0790013370
0.4472627788 -0.0955850035 0.0782716922
0.4486662209 -0.0883115267 0.0725932837
0.4486662209 -0.0061212388 0.0725932837
0.4479365826 -0.0061212388 0.0731534272
0.4487307906 0.0833425259 0.0725437134
0.4487307906 0.0011522380 0.0725437134
0.4494604289 0.0011522380 0.0719835699
0.4604571357 -0.0061212388 -0.0768401961
0.4608089380 -0.0061212388 -0.0776899027
0.4608089380 -0.0883115267 -0.0776899027
0.4592065609 -0.0061212388 -0.0751775298
0.4597667110 -0.0061212388 -0.0759067340
0.4597667110 -0.0883115267 -0.0759067340
0.4592065609 0.0011522380 0.0732675288
0.4597667110 0.0011522380 0.0739967329
0.4597667110 0.0833425259 0.0739967329
0.4592065609 0.0906160027 -0.0039163287
0.4597667110 0.0906160027 -0.0046455328
0.4597667110 0.0906160027 -0.0701131404
0.4535956574 0.0906160027 -0.0037710941
0.4545071626 0.0906160027 -0.0038911559
0.4545071626 0.0906160027 -0.0672947482
0.4556551911 0.0906160027 -0.0038022235
0.4565048944 0.0906160027 -0.0041540258
0.4565048944 0.0906160027 -0.0677977449
0.4515297094 0.0906160027 -0.0037604656
0.4524416487 0.0906160027 -0.0036404039
0.4524416487 0.0906160027 -0.0672841230
0.4575695191 0.0906160027 -0.0038517973
0.4582987232 0.0906160027 -0.0044119409
0.4582987232 0.0906160027 -0.0687592613
0.4496001552 0.0906160027 -0.0037710941
0.4504494244 0.0906160027 -0.0034192918
0.4504494244 0.0906160027 -0.0677666123
0.4486662209 0.0833425259 -0.0745032847
0.4486662209 0.0011522380 -0.0745032847
0.4479365826 0.0011522380 -0.0750634283
0.4466535447 -0.0061212388 -0.0767004695
0.4472132475 -0.0061212388 -0.0759712653
0.4472132475 -0.0883115267 -0.0759712653
0.4462210782 -0.0955850035 -0.0780016213
0.4465728805 -0.0955850035 -0.0806743350
0.4462210782 -0.0955850035 -0.0815240417
0.4456763197 -0.0955850035 -0.0798435363
0.4457963847 -0.0955850035 -0.0807554789
0.4456763197 -0.0955850035 -0.0816669841
0.4455456294 -0.0061212388 -0.0806743386
0.4456656944 -0.0061212388 -0.0797628334
0.4456656944 -0.0883115267 -0.0797628334
0.2848380585 0.0906160027 -0.0847706533
0.2839256719 0.0906160027 -0.0848902744
0.1474622810 0.0906160027 -0.0882930737
0.1094217597 0.0906160027 -0.0893321750
-0.1597208417 0.0906160027 -0.0976712208
-0.1606319062 0.0906160027 -0.0975515998
-0.1726753755 0.0906160027 -0.0851146211
-0.1861779917 0.0906160027 -0.0938059099
-0.4392066178 0.0906160027 -0.0968564662
-0.4478249325 0.0833425259 -0.0880494124
-0.4478249325 0.0011522380 -0.0880494124
-0.4469761106 0.0011522380 -0.0876971694
-0.4479000495 -0.0883115267 -0.0880805844
-0.4479000495 -0.0061212388 -0.0880805844
-0.4487488715 -0.0061212388 -0.0884328274
-0.4508102459 -0.0955850035 -0.0810561319
-0.4498978594 -0.0955850035 -0.0809365108
-0.4498978594 -0.0955850035 -0.0879813548
-0.4518826850 -0.0955850035 -0.0735291231
-0.4509716139 -0.0955850035 -0.0804539052
-0.4518826850 -0.0955850035 -0.0805739670
-0.4556747479 -0.0883115267 -0.0744537145
-0.4556747479 -0.0061212388 -0.0744537145
-0.4549455438 -0.0061212388 -0.0738935709
-0.4538803927 -0.0883115267 -0.0734299325
-0.4538803927 -0.0061212388 -0.0734299325
-0.4530302421 -0.0061212388 -0.0730781301
-0.4625224705 0.0906160027 0.0955998444
-0.4616736486 0.0906160027 0.0952476014
-0.4490198543 0.0906160027 0.0869085523
-0.4498978594 0.0833425259 0.0866947912
-0.4498978594 0.0011522380 0.0866947912
-0.4508102459 0.0011522380 0.0868144123
-0.4518826850 -0.0883115267 0.0866947912
-0.4518826850 -0.0061212388 0.0866947912
-0.4509716139 -0.0061212388 0.0868144123
-0.4538803927 -0.0955850035 0.0855683570
-0.4530302421 -0.0955850035 0.0791154422
-0.4538803927 -0.0955850035 0.0787631992
-0.4548057779 -0.0955850035 0.0785439045
-0.4539556273 -0.0955850035 0.0781921055
-0.4539556273 -0.0955850035 0.0720909897
-0.4556747479 0.0833425259 0.0725437134
-0.4556747479 0.0011522380 0.0725437134
-0.4549455438 0.0011522380 0.0719835699
-0.4556747479 0.0906160027 0.0668492603
-0.4549455438 0.0906160027 0.0019417963
-0.4556747479 0.0906160027 0.0025019398
0.4582987232 -0.0883115267 0.0725437134
0.4582987232 -0.0061212388 0.0725437134
0.4575695191 -0.0061212388 0.0719835699
0.4565800894 0.0833425259 0.0715510680
0.4565800894 0.0011522380 0.0715510680
0.4574297927 0.0011522380 0.0719028670
0.4545878267 0.0906160027 0.0653741258
0.4554993319 0.0906160027 0.0018504717
0.4545878267 0.0906160027 0.0017304067
0.4525223513 0.0906160027 0.0653847507
0.4534342906 0.0906160027 0.0018610934
0.4525223513 0.0906160027 0.0019811584
0.4505245810 0.0906160027 0.0658877478
0.4513738502 0.0906160027 0.0018922296
0.4505245810 0.0906160027 0.0022440287
-0.1606319062 0.0906160027 0.0956416023
-0.1597208417 0.0906160027 0.0957612234
0.1094217597 0.0906160027 0.0874221743
0.1474622810 0.0906160027 0.0863830726
0.2839256719 0.0906160027 0.0829802734
0.2848380585 0.0906160027 0.0828606523
0.4455456294 -0.0061212388 0.0789257049
0.4456656944 -0.0061212388 0.0798376508
0.4456656944 -0.0883115267 0.0798376508
0.4462210782 -0.0955850035 0.0815988590
0.4465728805 -0.0955850035 0.0789257014
0.4462210782 -0.0955850035 0.0780764387
0.4466535447 -0.0955850035 0.0786246074
0.4472132475 -0.0955850035 0.0778954032
0.4472132475 -0.0955850035 0.0743729829
0.4478224816 -0.0061212388 0.0732675288
0.4472627788 -0.0061212388 0.0739967329
0.4472627788 -0.0883115267 0.0739967329
0.4487307906 0.0906160027 0.0668492603
0.4494604289 0.0906160027 0.0019417963
0.4487307906 0.0906160027 0.0025019398
0.4603764319 0.0011522380 -0.0767004695
0.4598162818 0.0011522380 -0.0759712653
0.4598162818 0.0833425259 -0.0759712653
0.4583632546 0.0833425259 0.0725932837
0.4583632546 0.0011522380 0.0725932837
0.4590924587 0.0011522380 0.0731534272
0.4583632546 0.0906160027 0.0667996901
0.4590924587 0.0906160027 0.0018922260
0.4583632546 0.0906160027 0.0013320825
0.4565800894 0.0906160027 0.0658566148
0.4574297927 0.0906160027 0.0018610934
0.4565800894 0.0906160027 0.0015092944
0.4479365826 0.0906160027 -0.0038022271
0.4486662209 0.0906160027 -0.0032420835
0.4486662209 0.0906160027 -0.0687096911
0.4478224816 0.0011522380 -0.0751775298
0.4472627788 0.0011522380 -0.0759067340
0.4472627788 0.0833425259 -0.0759067340
0.4465728805 0.0011522380 -0.0768401961
0.4462210782 0.0011522380 -0.0776899027
0.4462210782 0.0833425259 -0.0776899027
0.4458381429 -0.0061212388 -0.0786148046
0.4461899452 -0.0061212388 -0.0777650980
0.4461899452 -0.0883115267 -0.0777650980
0.4457963847 0.0011522380 -0.0787706641
0.4456763197 0.0011522380 -0.0796821692
0.4456763197 0.0833425259 -0.0796821692
0.2858427396 0.0906160027 -0.0843766524
0.2849939177 0.0906160027 -0.0847288955
0.1493793487 0.0906160027 -0.0877794517
0.1353858748 0.0833425259 -0.0885942063
0.1353858748 0.0011522380 -0.0885942063
0.1362982614 0.0011522380 -0.0884745853
0.1333203142 0.0833425259 -0.0886047923
0.1333203142 0.0011522380 -0.0886047923
0.1342313787 0.0011522380 -0.0887244134
0.1075046848 0.0906160027 -0.0888185530
-0.1607877659 0.0906160027 -0.0975098419
-0.1616379165 0.0906160027 -0.0971575989
0.1028768140 0.0906160027 -0.0827867496
-0.1636544283 0.0906160027 -0.0945285947
-0.1637753747 0.0906160027 -0.0936166521
-0.1706857589 0.0906160027 -0.0837362464
-0.1714158444 0.0906160027 -0.0842959493
-0.4237143849 0.0906160027 -0.0867868026
-0.4461062987 -0.0883115267 -0.0870567634
-0.4461062987 -0.0061212388 -0.0870567634
-0.4468363842 -0.0061212388 -0.0876164662
-0.4487488715 -0.0955850035 -0.0810254396
-0.4479000495 -0.0955850035 -0.0806731966
-0.4479000495 -0.0955850035 -0.0874783577
-0.4498171172 -0.0955850035 -0.0735185371
-0.4489047306 -0.0955850035 -0.0804437600
-0.4498171172 -0.0955850035 -0.0803236982
-0.4518826850 -0.0883115267 -0.0729056855
-0.4518826850 -0.0061212388 -0.0729056855
-0.4509716139 -0.0061212388 -0.0727856238
-0.4539556273 0.0833425259 -0.0734610654
-0.4539556273 0.0011522380 -0.0734610654
-0.4548057779 0.0011522380 -0.0738128677
-0.4519633107 0.0833425259 -0.0729163105
-0.4519633107 0.0011522380 -0.0729163105
-0.4528743818 0.0011522380 -0.0730363723
-0.4392066178 0.0906160027 0.0887120935
-0.1861779917 0.0906160027 0.0152130978
-0.1726753755 0.0906160027 0.0065218057
-0.4479000495 0.0833425259 0.0861705833
-0.4479000495 0.0011522380 0.0861705833
-0.4487488715 0.0011522380 0.0865228263
-0.4498171172 -0.0883115267 0.0866842053
-0.4498171172 -0.0061212388 0.0866842053
-0.4489047306 -0.0061212388 0.0865645842
-0.4518826850 -0.0955850035 0.0860713537
-0.4509716139 -0.0955850035 0.0791461309
-0.4518826850 -0.0955850035 0.0790265098
-0.4528743818 -0.0955850035 0.0785337625
-0.4519633107 -0.0955850035 0.0784136975
-0.4519633107 -0.0955850035 0.0716085397
-0.4539556273 -0.0883115267 0.0715510680
-0.4539556273 -0.0061212388 0.0715510680
-0.4548057779 -0.0061212388 0.0719028670
-0.4548057779 0.0906160027 -0.0037710941
-0.4539556273 0.0906160027 -0.0034192918
-0.4539556273 0.0906160027 -0.0677666123
-0.1616379165 0.0906160027 0.0952476014
-0.1607877659 0.0906160027 0.0955998444
0.1075046848 0.0906160027 0.0869085523
0.1332396890 0.0833425259 0.0866842053
0.1332396890 0.0011522380 0.0866842053
0.1323286245 0.0011522380 0.0865645842
0.1353051326 0.0833425259 0.0866947912
0.1353051326 0.0011522380 0.0866947912
0.1343927460 0.0011522380 0.0868144123
0.1493793487 0.0906160027 0.0858694506
0.2849939177 0.0906160027 0.0828188944
0.2858427396 0.0906160027 0.0824666514
0.4455456294 0.0011522380 0.0787643376
0.4456656944 0.0011522380 0.0778528324
0.4456656944 0.0833425259 0.0778528324
0.4456763197 -0.0955850035 0.0797569866
0.4457963847 -0.0955850035 0.0788454814
0.4456763197 -0.0955850035 0.0779335356
0.4458381429 -0.0955850035 0.0786896220
0.4461899452 -0.0955850035 0.0778399154
0.4461899452 -0.0955850035 0.0760164643
0.4466535447 0.0011522380 0.0747904684
0.4472132475 0.0011522380 0.0740612643
0.4472132475 0.0833425259 0.0740612643
0.4472627788 0.0906160027 0.0682031394
0.4478224816 0.0906160027 0.0020063276
0.4472627788 0.0906160027 0.0027355318
0.4466535447 0.0906160027 -0.0038517973
0.4472132475 0.0906160027 -0.0031225932
0.4472132475 0.0906160027 -0.0700486090
0.4458381429 0.0906160027 -0.0039163287
0.4461899452 0.0906160027 -0.0030666220
0.4461899452 0.0906160027 -0.0716920512
0.4455456294 0.0906160027 -0.0039915239
0.4456656944 0.0906160027 -0.0030800187
0.4456656944 0.0906160027 -0.0735284582
0.2867130312 0.0906160027 -0.0837362464
0.2859825050 0.0906160027 -0.0842959493
0.1510984622 0.0906160027 -0.0867868026
0.1373780594 0.0833425259 -0.0880494124
0.1373780594 0.0011522380 -0.0880494124
0.1382268814 0.0011522380 -0.0876971694
0.1353051326 -0.0883115267 -0.0886047923
0.1353051326 -0.0061212388 -0.0886047923
0.1343927460 -0.0061212388 -0.0887244134
0.1373029425 -0.0883115267 -0.0880805844
0.1373029425 -0.0061212388 -0.0880805844
0.1364541205 -0.0061212388 -0.0884328274
0.1332396890 -0.0883115267 -0.0885942063
0.1332396890 -0.0061212388 -0.0885942063
0.1323286245 -0.0061212388 -0.0884745853
0.1313226142 0.0833425259 -0.0880805844
0.1313226142 0.0011522380 -0.0880805844
0.1321727647 0.0011522380 -0.0884328274
0.1057855713 0.0906160027 -0.0878259040
-0.1617776818 0.0906160027 -0.0970768957
-0.1625068794 0.0906160027 -0.0965171928
0.1033904324 0.0906160027 -0.0847038173
-0.1632617563 0.0906160027 -0.0955337198
-0.1636126707 0.0906160027 -0.0946844539
0.1263427031 0.0011522380 -0.0808357057
0.1264636496 0.0011522380 -0.0817476483
0.1264636496 0.0833425259 -0.0817476483
-0.1700124023 0.0906160027 -0.0828925000
-0.1705716579 0.0906160027 -0.0836221448
-0.4223109428 0.0906160027 -0.0853833533
-0.4460416894 0.0833425259 -0.0870072321
-0.4460416894 0.0011522380 -0.0870072321
-0.4453116038 0.0011522380 -0.0864475293
-0.4468363842 -0.0955850035 -0.0809754287
-0.4461062987 -0.0955850035 -0.0804157259
-0.4461062987 -0.0955850035 -0.0865168416
-0.4478249325 -0.0955850035 -0.0740009872
-0.4469761106 -0.0955850035 -0.0804539052
-0.4478249325 -0.0955850035 -0.0801021029
-0.4498171172 -0.0883115267 -0.0729163105
-0.4498171172 -0.0061212388 -0.0729163105
-0.4489047306 -0.0061212388 -0.0730363723
-0.4498978594 0.0833425259 -0.0729056855
-0.4498978594 0.0011522380 -0.0729056855
-0.4508102459 0.0011522380 -0.0727856238
-0.4528743818 0.0906160027 -0.0037604656
-0.4519633107 0.0906160027 -0.0036404039
-0.4519633107 0.0906160027 -0.0672841230
-0.1637860779 0.0906160027 0.0149431371
-0.1637860779 0.0906160027 0.0853915766
0.1027451643 0.0906160027 0.0032012887
-0.4237143849 0.0906160027 0.0786424264
-0.1714158444 0.0906160027 0.0057031335
-0.1706857589 0.0906160027 0.0051434307
