-0.1439309010 0.1158889979 -0.1534762679
-0.0795356432 0.0917600021 -0.1523333332
-0.0646665588 0.0917600021 -0.1526997261
-0.0392760167 0.0917600021 -0.1534499591
-0.1284553795 0.0917600021 -0.1508677616
-0.1188470239 0.0917600021 -0.1510422344
-0.0917438802 0.0917600021 -0.1518797039
-0.0458764509 0.0917600021 -0.1530661189
-0.0152251801 0.0917600021 -0.1540082721
-0.0533714237 0.0917600021 -0.1529439880
-0.1727475690 0.0917600021 -0.1494719791
-0.1664869498 0.0917600021 -0.1495243210
-0.1443150328 0.0917600021 -0.1502396595
-0.1991245546 0.0917600021 -0.1485647205
-0.1942986797 0.0917600021 -0.1485647205
-0.1837018178 0.0917600021 -0.1489485607
-0.1591747957 0.0917600021 -0.1494719791
-0.1355681345 0.0917600021 -0.1502396595
-0.1618872878 0.0917600021 -0.1495243210
-0.1088502626 0.0917600021 -0.1508677616
-0.0769646382 0.0917600021 -0.1518797039
-0.1066315280 0.0917600021 -0.1510422344
-0.0584224404 0.0917600021 -0.1523333332
-0.0229886888 0.0917600021 -0.1534499591
-0.0484546352 0.0917600021 -0.1526997261
-0.0091928365 0.0917600021 -0.1540082721
-0.0424078533 0.0917600021 -0.1530661189
-0.0431918438 0.0917600021 -0.1529439880
-0.1118561215 0.0917600021 -0.1511294708
-0.1077088852 0.0917600021 -0.1511294708
-0.0772580050 0.0917600021 -0.1520890712
0.0473453764 0.0917600021 -0.1801703817
0.0673544870 0.0917600021 -0.1788238661
0.0771263783 0.0917600021 -0.1806353817
0.0324548755 0.0917600021 -0.1760167567
0.0575825958 0.0917600021 -0.1730912255
0.0608398929 0.0917600021 -0.1762337411
0.1115606617 0.0917600021 -0.1739340381
0.1162139432 0.0917600021 -0.1773245693
0.0892249103 0.0917600021 -0.1766769443
0.0324548755 0.0917600021 -0.1699842567
0.0608398929 0.0917600021 -0.1660538974
0.0575825958 0.0917600021 -0.1696225380
0.0473453764 0.0917600021 -0.1638826318
0.0771263783 0.0917600021 -0.1595216319
0.0673544870 0.0917600021 -0.1626115225
0.1162139432 0.0917600021 -0.1577189445
0.1115606617 0.0917600021 -0.1617182257
0.0892249103 0.0917600021 -0.1618973194
0.1534401955 0.0917600021 -0.1583001945
0.1520442111 0.0917600021 -0.1628781789
0.1329657568 0.0917600021 -0.1620524445
0.1776372595 0.0917600021 -0.1610910071
0.1776372595 0.0917600021 -0.1659170070
0.1674000401 0.0917600021 -0.1641736320
0.1534401955 0.0917600021 -0.1718733194
0.1329657568 0.0917600021 -0.1707995694
0.1520442111 0.0917600021 -0.1674779601
0.0836409724 0.0917600021 -0.1696523818
0.1092340209 0.0917600021 -0.1659046475
0.1092340209 0.0917600021 -0.1700519912
0.2564498719 0.0974152355 -0.1593930069
0.2540809231 0.0964255696 -0.1603497567
0.2529239946 0.0943991110 -0.1608170066
0.2582128106 0.1013738989 -0.1586810071
0.2552378516 0.1009026294 -0.1598825068
0.2548522087 0.0986405360 -0.1600382568
0.2488471988 0.0954359038 -0.1624635062
0.2482962805 0.0928910488 -0.1626860062
0.2514916069 0.0957657924 -0.1613955065
0.2582128106 0.1051440545 -0.1586810071
0.2548522087 0.1050026736 -0.1600382568
0.2552378516 0.1030704689 -0.1598825068
0.2564498719 0.1075946556 -0.1593930069
0.2529239946 0.1075946556 -0.1608170066
0.2540809231 0.1065578628 -0.1603497567
0.2482962805 0.1051440545 -0.1626860062
0.2488471988 0.1030704689 -0.1624635062
0.2514916069 0.1050026736 -0.1613955065
0.2438889338 0.1013738989 -0.1644660058
0.2440542093 0.0986405360 -0.1643992558
0.2463129745 0.1009026294 -0.1634870060
0.2410241584 0.0974152355 -0.1656230055
0.2410241584 0.0943991110 -0.1656230055
0.2422361788 0.0964255696 -0.1651335056
0.2438889338 0.0928910488 -0.1644660058
0.2463129745 0.0954359038 -0.1634870060
0.2440542093 0.0957657924 -0.1643992558
0.2521527089 0.1006669947 -0.1611285065
0.2491226580 0.1006669947 -0.1623522562
0.2491226580 0.0980750127 -0.1623522562
0.2223916393 0.0917600021 0.1490713335
0.2310171323 0.0917600021 0.1498560847
0.2522792627 0.0917600021 0.1497277073
0.1803717729 0.0917600021 0.1495556467
0.1826789472 0.0917600021 0.1507969622
0.2072963338 0.0917600021 0.1502281280
0.2368502646 0.0917600021 0.1519866397
0.2644307136 0.0917600021 0.1514016980
0.2357829749 0.0917600021 0.1508537343
0.1387163040 0.0917600021 0.1508056469
0.1370027302 0.0917600021 0.1523375033
0.1587270527 0.0917600021 0.1515157123
0.1099218735 0.0917600021 0.1524463340
0.1064851218 0.0917600021 0.1541027080
0.1190680599 0.0917600021 0.1532154602
0.1290504400 0.0917600021 0.1554641987
0.1524979403 0.0917600021 0.1545178901
0.1337270763 0.0917600021 0.1539162348
0.1664099692 0.0917600021 0.1562846659
0.1967712819 0.0917600021 0.1553007732
0.1739796696 0.0917600021 0.1549896588
0.2073558508 0.0917600021 0.1563179696
0.2406802258 0.0917600021 0.1553179694
0.2194717947 0.0917600021 0.1554204659
0.2601347741 0.0917600021 0.1534721655
0.2343800994 0.0917600021 0.1531771585
0.2285335768 0.0917600021 0.1543476481
0.1822752563 0.0917600021 0.1521681644
0.1793217979 0.0917600021 0.1535916108
0.2079599327 0.0917600021 0.1527322356
-0.0586450917 0.0917600021 0.1520161477
-0.0486383225 0.0917600021 0.1523190482
-0.0230925928 0.0917600021 0.1529392728
-0.1092287698 0.0917600021 0.1508045461
-0.1069914809 0.0917600021 0.1509487844
-0.0772355306 0.0917600021 0.1516411282
-0.0425525767 0.0917600021 0.1526219486
-0.0092373667 0.0917600021 0.1534008353
-0.0433495551 0.0917600021 0.1525209818
-0.1597017371 0.0917600021 0.1496506397
-0.1624086629 0.0917600021 0.1496939112
-0.1360134371 0.0917600021 0.1502852882
-0.1949221033 0.0917600021 0.1489006006
-0.1997479782 0.0917600021 0.1489006006
-0.1842844220 0.0917600021 0.1492179249
-0.1732745103 0.0917600021 0.1496506397
-0.1447603354 0.0917600021 0.1502852882
-0.1670083249 0.0917600021 0.1496939112
-0.1288338867 0.0917600021 0.1508045461
-0.0920147726 0.0917600021 0.1516411282
-0.1192069768 0.0917600021 0.1509487844
-0.0797582945 0.0917600021 0.1520161477
-0.0393799207 0.0917600021 0.1529392728
-0.0648502461 0.0917600021 0.1523190482
-0.0152697104 0.0917600021 0.1534008353
-0.0460211743 0.0917600021 0.1526219486
-0.0535291350 0.0917600021 0.1525209818
-0.1080595610 0.0917600021 0.1510209035
-0.1122067973 0.0917600021 0.1510209035
-0.0775066323 0.0917600021 0.1518142141
0.2633951446 0.0974152355 0.1575486704
0.2657042121 0.0964255696 0.1564357942
0.2668318963 0.0943991110 0.1558922965
0.2616767688 0.1013738989 0.1583768574
0.2645765280 0.1009026294 0.1569792919
0.2649524227 0.0986405360 0.1567981260
0.2708056404 0.0954359038 0.1539771141
0.2713426328 0.0928910488 0.1537183056
0.2682280766 0.0957657924 0.1552193945
0.2616767688 0.1051440545 0.1583768574
0.2649524227 0.1050026736 0.1567981260
0.2645765280 0.1030704689 0.1569792919
0.2633951446 0.1075946556 0.1575486704
0.2668318963 0.1075946556 0.1558922965
0.2657042121 0.1065578628 0.1564357942
0.2713426328 0.1051440545 0.1537183056
0.2708056404 0.1030704689 0.1539771141
0.2682280766 0.1050026736 0.1552193945
0.2756385724 0.1013738989 0.1516478382
0.2754774747 0.0986405360 0.1517254807
0.2732758056 0.1009026294 0.1527865953
0.2784309331 0.0974152355 0.1503020343
0.2784309331 0.0943991110 0.1503020343
0.2772495497 0.0964255696 0.1508714129
0.2756385724 0.0928910488 0.1516478382
0.2732758056 0.0954359038 0.1527865953
0.2754774747 0.0957657924 0.1517254807
0.2675836857 0.1006669947 0.1555299647
0.2705371442 0.1006669947 0.1541065183
0.2705371442 0.0980750127 0.1541065183
-0.2987398347 0.0974152355 0.1478361625
-0.2964361435 0.0964255696 0.1489681035
-0.2953110849 0.0943991110 0.1495209120
-0.3004542096 0.1013738989 0.1469937877
-0.2975612020 0.1009026294 0.1484152951
-0.2971861825 0.0986405360 0.1485995646
-0.2913465931 0.0954359038 0.1514689036
-0.2908108509 0.0928910488 0.1517321457
-0.2939181554 0.0957657924 0.1502053415
-0.3004542096 0.1051440545 0.1469937877
-0.2971861825 0.1050026736 0.1485995646
-0.2975612020 0.1030704689 0.1484152951
-0.2987398347 0.1075946556 0.1478361625
-0.2953110849 0.1075946556 0.1495209120
-0.2964361435 0.1065578628 0.1489681035
-0.2908108509 0.1051440545 0.1517321457
-0.2913465931 0.1030704689 0.1514689036
-0.2939181554 0.1050026736 0.1502053415
-0.2865249137 0.1013738989 0.1538380826
-0.2866856364 0.0986405360 0.1537591099
-0.2888821792 0.1009026294 0.1526798173
-0.2837390546 0.0974152355 0.1552069415
-0.2837390546 0.0943991110 0.1552069415
-0.2849176873 0.0964255696 0.1546278089
-0.2865249137 0.0928910488 0.1538380826
-0.2888821792 0.0954359038 0.1526798173
-0.2866856364 0.0957657924 0.1537591099
-0.2945610459 0.1006669947 0.1498894509
-0.2916144641 0.1006669947 0.1513372825
-0.2916144641 0.0980750127 0.1513372825
-0.1669910899 0.1158889979 0.1507977229
-0.1877434290 0.1158889979 0.1514113909
-0.2338283374 0.1158889979 0.1509029735
-0.0764813435 0.1158889979 0.1520284404
-0.0845673979 0.1158889979 0.1532031511
-0.1368918763 0.1158889979 0.1522027964
-0.2057099090 0.1158889979 0.1533939178
-0.2644611020 0.1158889979 0.1523244578
-0.2005961278 0.1158889979 0.1523031134
0.0113511530 0.1158889979 0.1540028140
0.0113254615 0.1158889979 0.1555345518
-0.0340637125 0.1158889979 0.1543384159
0.0701566506 0.1158889979 0.1561285316
0.0735854004 0.1158889979 0.1578132811
0.0483064053 0.1158889979 0.1567175199
0.0209945117 0.1158889979 0.1587411719
-0.0278491036 0.1158889979 0.1573920244
0.0145934886 0.1158889979 0.1571403287
-0.0625520477 0.1158889979 0.1588727352
-0.1263913303 0.1158889979 0.1573623417
-0.0758883752 0.1158889979 0.1574676732
-0.1519903098 0.1158889979 0.1581685019
-0.2222563070 0.1158889979 0.1565890030
-0.1762249729 0.1158889979 0.1570710962
-0.2601751648 0.1158889979 0.1544303946
-0.2032454951 0.1158889979 0.1546048315
-0.1933636089 0.1158889979 0.1558568819
-0.0870567730 0.1158889979 0.1545539085
-0.0841101912 0.1158889979 0.1560017401
-0.1444950325 0.1158889979 0.1546443583
-0.2700418502 0.1102337645 -0.1593930069
-0.2676729038 0.1112234304 -0.1603497567
-0.2665159765 0.1132498890 -0.1608170066
-0.2718047870 0.1062751011 -0.1586810071
-0.2688298311 0.1067463706 -0.1598825068
-0.2684441887 0.1090084639 -0.1600382568
-0.2624391851 0.1122130962 -0.1624635062
-0.2618882674 0.1147579512 -0.1626860062
-0.2650835903 0.1118832076 -0.1613955065
-0.2718047870 0.1025049455 -0.1586810071
-0.2684441887 0.1026463264 -0.1600382568
-0.2688298311 0.1045785311 -0.1598825068
-0.2700418502 0.1000543444 -0.1593930069
-0.2665159765 0.1000543444 -0.1608170066
-0.2676729038 0.1010911372 -0.1603497567
-0.2618882674 0.1025049455 -0.1626860062
-0.2624391851 0.1045785311 -0.1624635062
-0.2650835903 0.1026463264 -0.1613955065
-0.2574809253 0.1062751011 -0.1644660058
-0.2576462006 0.1090084639 -0.1643992558
-0.2599049634 0.1067463706 -0.1634870060
-0.2546161530 0.1102337645 -0.1656230055
-0.2546161530 0.1132498890 -0.1656230055
-0.2558281720 0.1112234304 -0.1651335056
-0.2574809253 0.1147579512 -0.1644660058
-0.2599049634 0.1122130962 -0.1634870060
-0.2576462006 0.1118832076 -0.1643992558
-0.2657446917 0.1069820053 -0.1611285065
-0.2627146440 0.1069820053 -0.1623522562
-0.2627146440 0.1095739873 -0.1623522562
-0.2313260847 0.0917600021 -0.1489715956
-0.2406295228 0.0917600021 -0.1496678577
-0.2633019584 0.0917600021 -0.1494365956
-0.1865482247 0.0917600021 -0.1496463541
-0.1891671640 0.0917600021 -0.1508063783
-0.2153642723 0.0917600021 -0.1501418992
-0.2471234352 0.0917600021 -0.1516491909
-0.2764803696 0.0917600021 -0.1509541668
-0.2458412769 0.0917600021 -0.1505851023
-0.1422560353 0.0917600021 -0.1510421366
-0.1406212026 0.0917600021 -0.1524972820
-0.1636991551 0.0917600021 -0.1516089532
-0.1117371733 0.0917600021 -0.1527402082
-0.1082792955 0.0917600021 -0.1543218342
-0.1215942637 0.0917600021 -0.1534190230
-0.1325307540 0.0917600021 -0.1554904598
-0.1574317516 0.0917600021 -0.1544756503
-0.1373254129 0.0917600021 -0.1540047693
-0.1725005962 0.0917600021 -0.1560717098
-0.2047745216 0.0917600021 -0.1549856288
-0.1804144109 0.0917600021 -0.1548098691
-0.2161978694 0.0917600021 -0.1558912094
-0.2516316209 0.0917600021 -0.1547745834
-0.2290132146 0.0917600021 -0.1549811325
-0.2721580224 0.0917600021 -0.1529311993
-0.2446380855 0.0917600021 -0.1527859846
-0.2385473160 0.0917600021 -0.1539213447
-0.1889097828 0.0917600021 -0.1521030646
-0.1859381691 0.0917600021 -0.1534622745
-0.2163890493 0.0917600021 -0.1525026741
0.1827642517 0.1158889979 -0.1656230055
0.1392409866 0.1158889979 -0.1651335056
0.1161815012 0.1158889979 -0.1656230055
0.2189204023 0.1158889979 -0.1644660058
0.1651652473 0.1158889979 -0.1634870060
0.1556239937 0.1158889979 -0.1643992558
0.0444840119 0.1158889979 -0.1634870060
0.0316564165 0.1158889979 -0.1644660058
0.0921623097 0.1158889979 -0.1643992558
0.2233277491 0.1158889979 -0.1626860062
0.1630613913 0.1158889979 -0.1613955065
0.1676994716 0.1158889979 -0.1624635062
0.1946640878 0.1158889979 -0.1608170066
0.1316072147 0.1158889979 -0.1593930069
0.1510857308 0.1158889979 -0.1603497567
0.0459802933 0.1158889979 -0.1586810071
0.0534088890 0.1158889979 -0.1598825068
0.1029603091 0.1158889979 -0.1600382568
-0.0372481449 0.1158889979 -0.1586810071
-0.0374876803 0.1158889979 -0.1600382568
0.0055525371 0.1158889979 -0.1598825068
-0.0931095683 0.1158889979 -0.1593930069
-0.0966354457 0.1158889979 -0.1608170066
-0.0725906967 0.1158889979 -0.1603497567
-0.0471646750 0.1158889979 -0.1626860062
-0.0008381156 0.1158889979 -0.1624635062
-0.0408482822 0.1158889979 -0.1613955065
0.1097150241 0.1158889979 -0.1623522562
0.0555255237 0.1158889979 -0.1611285065
0.0524954729 0.1158889979 -0.1623522562
0.1851847800 0.0917600021 -0.1737998803
0.1961686915 0.0917600021 -0.1718794273
0.2149657818 0.0917600021 -0.1694388804
0.1489619904 0.0917600021 -0.1783666930
0.1560393126 0.0917600021 -0.1767062870
0.1761162988 0.0917600021 -0.1743477868
0.2100173785 0.0917600021 -0.1688019746
0.2327210581 0.0917600021 -0.1661013807
0.2045013162 0.0917600021 -0.1701912088
0.1161430848 0.0917600021 -0.1820379433
0.1207343956 0.0917600021 -0.1805430217
0.1371684419 0.0917600021 -0.1788172559
0.0965737348 0.0917600021 -0.1837122561
0.1000996122 0.0917600021 -0.1822882565
0.1079678827 0.0917600021 -0.1817459125
0.1260596149 0.0917600021 -0.1780329442
0.1435590946 0.0917600021 -0.1762362565
0.1240949975 0.0917600021 -0.1791857720
0.1632858672 0.0917600021 -0.1725816943
0.1869142983 0.0917600021 -0.1699867878
0.1649641897 0.0917600021 -0.1731017878
0.2006104935 0.0917600021 -0.1675698818
0.2268656179 0.0917600021 -0.1646328815
0.2080134358 0.0917600021 -0.1670956785
0.2371284048 0.0917600021 -0.1643213811
0.2125516028 0.0917600021 -0.1677784749
0.2119387138 0.0917600021 -0.1671874595
0.1611756369 0.0917600021 -0.1752308341
0.1642056878 0.0917600021 -0.1740070844
0.1867686854 0.0917600021 -0.1714830998
0.2344131384 0.1102337645 -0.1682930049
0.2367820872 0.1112234304 -0.1673362551
0.2379390157 0.1132498890 -0.1668690052
0.2326501997 0.1062751011 -0.1690050047
0.2356251587 0.1067463706 -0.1678035050
0.2360108015 0.1090084639 -0.1676477550
0.2420158114 0.1122130962 -0.1652225056
0.2425667298 0.1147579512 -0.1650000056
0.2393714034 0.1118832076 -0.1662905053
0.2326501997 0.1025049455 -0.1690050047
0.2360108015 0.1026463264 -0.1676477550
0.2356251587 0.1045785311 -0.1678035050
0.2344131384 0.1000543444 -0.1682930049
0.2379390157 0.1000543444 -0.1668690052
0.2367820872 0.1010911372 -0.1673362551
0.2425667298 0.1025049455 -0.1650000056
0.2420158114 0.1045785311 -0.1652225056
0.2393714034 0.1026463264 -0.1662905053
0.2469740765 0.1062751011 -0.1632200060
0.2468088010 0.1090084639 -0.1632867560
0.2445500358 0.1067463706 -0.1641990058
0.2498388519 0.1102337645 -0.1620630063
0.2498388519 0.1132498890 -0.1620630063
0.2486268315 0.1112234304 -0.1625525062
0.2469740765 0.1147579512 -0.1632200060
0.2445500358 0.1122130962 -0.1641990058
0.2468088010 0.1118832076 -0.1632867560
0.2387103014 0.1069820053 -0.1665575053
0.2417403523 0.1069820053 -0.1653337555
0.2417403523 0.1095739873 -0.1653337555
0.2012715381 0.0917600021 0.1590617509
0.2087155991 0.0917600021 0.1602710793
0.2276424129 0.0917600021 0.1611975008
0.1638024066 0.0917600021 0.1574605722
0.1655050912 0.0917600021 0.1588113542
0.1875361644 0.0917600021 0.1594654413
0.2133023019 0.0917600021 0.1626824009
0.2379704921 0.0917600021 0.1634673688
0.2126709045 0.0917600021 0.1615010779
0.1264428774 0.0917600021 0.1566401049
0.1244919588 0.0917600021 0.1580809028
0.1440233619 0.0917600021 0.1583395855
0.1004008091 0.0917600021 0.1568464893
0.0968840606 0.0917600021 0.1583258654
0.1083118642 0.0917600021 0.1580660736
0.1165520221 0.0917600021 0.1608008503
0.1376492552 0.0917600021 0.1610209547
0.1211400578 0.0917600021 0.1594909332
0.1495156157 0.0917600021 0.1634705376
0.1767661220 0.0917600021 0.1639960306
0.1566033215 0.0917600021 0.1625560250
0.1858857632 0.0917600021 0.1655340213
0.2157733866 0.0917600021 0.1661903951
0.1969015219 0.0917600021 0.1652408584
0.2335745564 0.0917600021 0.1653165889
0.2107746388 0.0917600021 0.1637457025
0.2052527630 0.0917600021 0.1646216369
0.1647629068 0.0917600021 0.1601570875
0.1617407010 0.0917600021 0.1614284263
0.1874253774 0.0917600021 0.1619924976
-0.2642026484 0.0917600021 0.1503286464
-0.2414408717 0.0917600021 0.1503960626
-0.2320788993 0.0917600021 0.1495670220
-0.2774786638 0.0917600021 0.1520783176
-0.2480169850 0.0917600021 0.1525939623
-0.2466999928 0.0917600021 0.1514313669
-0.1897926897 0.0917600021 0.1512135180
-0.1871306194 0.0917600021 0.1499362489
-0.2160820444 0.0917600021 0.1507054437
-0.2731927267 0.0917600021 0.1541842545
-0.2394674738 0.0917600021 0.1549851354
-0.2455525712 0.0917600021 0.1538048760
-0.2526306181 0.0917600021 0.1560146760
-0.2170781192 0.0917600021 0.1569378010
-0.2299224156 0.0917600021 0.1560557680
-0.1732013235 0.0917600021 0.1567805437
-0.1811136669 0.0917600021 0.1554780402
-0.2055814983 0.0917600021 0.1558649890
-0.1330466371 0.0917600021 0.1558285132
-0.1378204650 0.0917600021 0.1542584375
-0.1580247222 0.0917600021 0.1549306226
-0.1086604658 0.0917600021 0.1543673186
-0.1120892155 0.0917600021 0.1526825691
-0.1220066958 0.0917600021 0.1534971859
-0.1426899958 0.0917600021 0.1510901552
-0.1642393311 0.0917600021 0.1518770141
-0.1410884920 0.0917600021 0.1526526606
-0.2171764196 0.0917600021 0.1532700757
-0.1866234909 0.0917600021 0.1540633863
-0.1895700727 0.0917600021 0.1526155547
0.2573108319 0.1102337645 0.1602924517
0.2549480165 0.1112234304 0.1612864076
0.2537940834 0.1132498890 0.1617718278
0.2590692062 0.1062751011 0.1595527637
0.2561019496 0.1067463706 0.1608009873
0.2557173052 0.1090084639 0.1609627940
0.2497278429 0.1122130962 0.1634823565
0.2491783509 0.1147579512 0.1637135090
0.2523654043 0.1118832076 0.1623728244
0.2590692062 0.1025049455 0.1595527637
0.2557173052 0.1026463264 0.1609627940
0.2561019496 0.1045785311 0.1608009873
0.2573108319 0.1000543444 0.1602924517
0.2537940834 0.1000543444 0.1617718278
0.2549480165 0.1010911372 0.1612864076
0.2491783509 0.1025049455 0.1637135090
0.2497278429 0.1045785311 0.1634823565
0.2523654043 0.1026463264 0.1623728244
0.2447824152 0.1062751011 0.1655627291
0.2449472628 0.1090084639 0.1654933834
0.2472001798 0.1067463706 0.1645456580
0.2419250570 0.1102337645 0.1667647222
0.2419250570 0.1132498890 0.1667647222
0.2431339393 0.1112234304 0.1662561867
0.2447824152 0.1147579512 0.1655627291
0.2472001798 0.1122130962 0.1645456580
0.2449472628 0.1118832076 0.1654933834
0.2530247946 0.1069820053 0.1620954414
0.2500025888 0.1069820053 0.1633667802
0.2500025888 0.1095739873 0.1633667802
-0.2773101488 0.1102337645 0.1583658468
-0.2796138400 0.1112234304 0.1572339058
-0.2807388986 0.1132498890 0.1566810973
-0.2755957739 0.1062751011 0.1592082216
-0.2784887815 0.1067463706 0.1577867142
-0.2788638010 0.1090084639 0.1576024447
-0.2847033904 0.1122130962 0.1547331057
-0.2852391326 0.1147579512 0.1544698636
-0.2821318281 0.1118832076 0.1559966679
-0.2755957739 0.1025049455 0.1592082216
-0.2788638010 0.1026463264 0.1576024447
-0.2784887815 0.1045785311 0.1577867142
-0.2773101488 0.1000543444 0.1583658468
-0.2807388986 0.1000543444 0.1566810973
-0.2796138400 0.1010911372 0.1572339058
-0.2852391326 0.1025049455 0.1544698636
-0.2847033904 0.1045785311 0.1547331057
-0.2821318281 0.1026463264 0.1559966679
-0.2895250698 0.1062751011 0.1523639268
-0.2893643471 0.1090084639 0.1524428994
-0.2871678043 0.1067463706 0.1535221920
-0.2923109289 0.1102337645 0.1509950678
-0.2923109289 0.1132498890 0.1509950678
-0.2911322962 0.1112234304 0.1515742004
-0.2895250698 0.1147579512 0.1523639268
-0.2871678043 0.1122130962 0.1535221920
-0.2893643471 0.1118832076 0.1524428994
-0.2814889376 0.1069820053 0.1563125584
-0.2844355194 0.1069820053 0.1548647268
-0.2844355194 0.1095739873 0.1548647268
0.1953114918 0.1158889979 0.1618639221
0.1515591493 0.1158889979 0.1614492171
0.1319909929 0.1158889979 0.1604897967
0.2241143831 0.1158889979 0.1637529780
0.1682699475 0.1158889979 0.1636106307
0.1635971850 0.1158889979 0.1625126104
0.0535015432 0.1158889979 0.1611200282
0.0460254799 0.1158889979 0.1598882501
0.1032448345 0.1158889979 0.1612028970
0.2197184474 0.1158889979 0.1656021981
0.1561790435 0.1158889979 0.1656331694
0.1657422845 0.1158889979 0.1646739322
0.1834424655 0.1158889979 0.1668568165
0.1166052180 0.1158889979 0.1669620671
0.1397450722 0.1158889979 0.1664189962
0.0317386889 0.1158889979 0.1658982155
0.0445997735 0.1158889979 0.1648646990
0.0924747920 0.1158889979 0.1657334864
-0.0474119347 0.1158889979 0.1641805586
-0.0410918854 0.1158889979 0.1628349404
-0.0009118351 0.1158889979 0.1638770463
-0.0971014658 0.1158889979 0.1623243936
-0.0935847173 0.1158889979 0.1608450175
-0.0729722289 0.1158889979 0.1618027934
-0.0375210794 0.1158889979 0.1600198133
0.0054622716 0.1158889979 0.1611956771
-0.0377399844 0.1158889979 0.1614249101
0.1100621020 0.1158889979 0.1635871487
0.0526238424 0.1158889979 0.1636775985
0.0556460482 0.1158889979 0.1624062596
-0.2480051399 0.0974152355 -0.1682930049
-0.2503740862 0.0964255696 -0.1673362551
-0.2515310135 0.0943991110 -0.1668690052
-0.2462422031 0.1013738989 -0.1690050047
-0.2492171589 0.1009026294 -0.1678035050
-0.2496028014 0.0986405360 -0.1676477550
-0.2556078049 0.0954359038 -0.1652225056
-0.2561587227 0.0928910488 -0.1650000056
-0.2529633997 0.0957657924 -0.1662905053
-0.2462422031 0.1051440545 -0.1690050047
-0.2496028014 0.1050026736 -0.1676477550
-0.2492171589 0.1030704689 -0.1678035050
-0.2480051399 0.1075946556 -0.1682930049
-0.2515310135 0.1075946556 -0.1668690052
-0.2503740862 0.1065578628 -0.1673362551
-0.2561587227 0.1051440545 -0.1650000056
-0.2556078049 0.1030704689 -0.1652225056
-0.2529633997 0.1050026736 -0.1662905053
-0.2605660647 0.1013738989 -0.1632200060
-0.2604007894 0.0986405360 -0.1632867560
-0.2581420266 0.1009026294 -0.1641990058
-0.2634308371 0.0974152355 -0.1620630063
-0.2634308371 0.0943991110 -0.1620630063
-0.2622188180 0.0964255696 -0.1625525062
-0.2605660647 0.0928910488 -0.1632200060
-0.2581420266 0.0954359038 -0.1641990058
-0.2604007894 0.0957657924 -0.1632867560
-0.2523022984 0.1006669947 -0.1665575053
-0.2553323460 0.1006669947 -0.1653337555
-0.2553323460 0.0980750127 -0.1653337555
-0.1363845158 0.1158889979 -0.1682930049
-0.1582870714 0.1158889979 -0.1673362551
-0.1994413889 0.1158889979 -0.1668690052
-0.0564871421 0.1158889979 -0.1690050047
-0.0687638167 0.1158889979 -0.1678035050
-0.1137977087 0.1158889979 -0.1676477550
-0.1830543993 0.1158889979 -0.1652225056
-0.2338345979 0.1158889979 -0.1650000056
-0.1738987910 0.1158889979 -0.1662905053
0.0179266073 0.1158889979 -0.1690050047
0.0117754934 0.1158889979 -0.1676477550
-0.0259759108 0.1158889979 -0.1678035050
0.0645326076 0.1158889979 -0.1682930049
0.0610067339 0.1158889979 -0.1668690052
0.0416998801 0.1158889979 -0.1673362551
0.0080100877 0.1158889979 -0.1650000056
-0.0323665568 0.1158889979 -0.1652225056
0.0084148950 0.1158889979 -0.1662905053
-0.0708110038 0.1158889979 -0.1632200060
-0.1245956968 0.1158889979 -0.1632867560
-0.0776886843 0.1158889979 -0.1641990058
-0.1518102130 0.1158889979 -0.1620630063
-0.2113412125 0.1158889979 -0.1620630063
-0.1701318031 0.1158889979 -0.1625525062
-0.2382419399 0.1158889979 -0.1632200060
-0.1855886210 0.1158889979 -0.1641990058
-0.1813361807 0.1158889979 -0.1632867560
-0.0764998154 0.1158889979 -0.1665575053
-0.0795298631 0.1158889979 -0.1653337555
-0.1306893158 0.1158889979 -0.1653337555
-0.0772747629 0.0917600021 -0.1806353817
-0.0667826793 0.0917600021 -0.1788238661
-0.0452988892 0.0917600021 -0.1801703817
-0.1192430972 0.0917600021 -0.1773245693
-0.1142468669 0.0917600021 -0.1739340381
-0.0902649616 0.0917600021 -0.1766769443
-0.0562905958 0.0917600021 -0.1730912255
-0.0293109523 0.0917600021 -0.1760167567
-0.0597879570 0.0917600021 -0.1762337411
-0.1592129394 0.0917600021 -0.1718733194
-0.1577140703 0.0917600021 -0.1674779601
-0.1372295262 0.0917600021 -0.1707995694
-0.1851933368 0.0917600021 -0.1659170070
-0.1851933368 0.0917600021 -0.1610910071
-0.1742016302 0.0917600021 -0.1641736320
-0.1592129394 0.0917600021 -0.1583001945
-0.1372295262 0.0917600021 -0.1620524445
-0.1577140703 0.0917600021 -0.1628781789
-0.1192430972 0.0917600021 -0.1577189445
-0.0902649616 0.0917600021 -0.1618973194
-0.1142468669 0.0917600021 -0.1617182257
-0.0772747629 0.0917600021 -0.1595216319
-0.0452988892 0.0917600021 -0.1638826318
-0.0667826793 0.0917600021 -0.1626115225
-0.0293109523 0.0917600021 -0.1699842567
-0.0562905958 0.0917600021 -0.1696225380
-0.0597879570 0.0917600021 -0.1660538974
-0.1117487518 0.0917600021 -0.1700519912
-0.1117487518 0.0917600021 -0.1659046475
-0.0842694853 0.0917600021 -0.1696523818
0.1632705174 0.0917600021 -0.1816785960
0.1731183392 0.0917600021 -0.1802806078
0.1895256419 0.0917600021 -0.1787415957
0.1317246970 0.0917600021 -0.1845069170
0.1382927782 0.0917600021 -0.1831794408
0.1556865207 0.0917600021 -0.1817860399
0.1858801914 0.0917600021 -0.1778561278
0.2055672346 0.0917600021 -0.1762466038
0.1807109362 0.0917600021 -0.1789867115
0.1033889151 0.0917600021 -0.1865989493
0.1078698888 0.0917600021 -0.1853163443
0.1219997037 0.0917600021 -0.1843823593
0.0867639065 0.0917600021 -0.1873270830
0.0903504055 0.0917600021 -0.1860637085
0.0969659255 0.0917600021 -0.1859029444
0.1134759436 0.0917600021 -0.1830457086
0.1285002332 0.0917600021 -0.1820924931
0.1112882707 0.0917600021 -0.1841121905
0.1462948492 0.0917600021 -0.1793744583
0.1666701739 0.0917600021 -0.1779169556
0.1473711039 0.0917600021 -0.1799815242
0.1789614506 0.0917600021 -0.1761513327
0.2016300761 0.0917600021 -0.1744777069
0.1851667343 0.0917600021 -0.1760364592
0.2100503583 0.0917600021 -0.1746673858
0.1884579875 0.0917600021 -0.1769480775
0.1882762076 0.0917600021 -0.1763217810
0.1432019513 0.0917600021 -0.1819432361
0.1462840988 0.0917600021 -0.1808575237
0.1657649489 0.0917600021 -0.1794192515
0.2281898090 0.0974152355 -0.1706444572
0.2257801300 0.0964255696 -0.1714932869
0.2246033100 0.0943991110 -0.1719078317
0.2299830585 0.1013738989 -0.1700127700
0.2269569500 0.1009026294 -0.1710787422
0.2265646766 0.0986405360 -0.1712169238
0.2204564205 0.0954359038 -0.1733686084
0.2198960300 0.0928910488 -0.1735660107
0.2231462948 0.0957657924 -0.1724210776
0.2299830585 0.1051440545 -0.1700127700
0.2265646766 0.1050026736 -0.1712169238
0.2269569500 0.1030704689 -0.1710787422
0.2281898090 0.1075946556 -0.1706444572
0.2246033100 0.1075946556 -0.1719078317
0.2257801300 0.1065578628 -0.1714932869
0.2198960300 0.1051440545 -0.1735660107
0.2204564205 0.1030704689 -0.1733686084
0.2231462948 0.1050026736 -0.1724210776
0.2154129063 0.1013738989 -0.1751452287
0.2155810234 0.0986405360 -0.1750860081
0.2178786243 0.1009026294 -0.1742766588
0.2124988758 0.0974152355 -0.1761717205
0.2124988758 0.0943991110 -0.1761717205
0.2137317348 0.0964255696 -0.1757374355
0.2154129063 0.0928910488 -0.1751452287
0.2178786243 0.0954359038 -0.1742766588
0.2155810234 0.0957657924 -0.1750860081
0.2238187633 0.1006669947 -0.1721841948
0.2207366157 0.1006669947 -0.1732699073
0.2207366157 0.0980750127 -0.1732699073
0.1796697647 0.0917600021 0.1679646615
0.1859125247 0.0917600021 0.1695378830
0.2024533899 0.0917600021 0.1713989098
0.1468516163 0.0917600021 0.1645122406
0.1479453236 0.0917600021 0.1659415595
0.1673311243 0.0917600021 0.1676853952
0.1892406443 0.0917600021 0.1721661345
0.2109305621 0.0917600021 0.1741710638
0.1890467671 0.0917600021 0.1709586630
0.1138880228 0.0917600021 0.1618425532
0.1117050602 0.0917600021 0.1631802977
0.1289912573 0.0917600021 0.1644064892
0.0906680622 0.0917600021 0.1607565056
0.0870808125 0.0917600021 0.1620550039
0.0973228670 0.0917600021 0.1623630982
0.1037988831 0.0917600021 0.1654945798
0.1224893673 0.0917600021 0.1667600175
0.1082859629 0.0917600021 0.1644179290
0.1322784146 0.0917600021 0.1697873902
0.1563451722 0.0917600021 0.1716620464
0.1388650979 0.0917600021 0.1692283835
0.1639755474 0.0917600021 0.1736455918
0.1903464223 0.0917600021 0.1757813417
0.1738616078 0.0917600021 0.1739000260
0.2064465001 0.0917600021 0.1757941868
0.1866623086 0.0917600021 0.1730994302
0.1814799123 0.0917600021 0.1736976830
0.1468667048 0.0917600021 0.1672446010
0.1437839121 0.0917600021 0.1683604980
0.1664463827 0.0917600021 0.1701959081
0.2353311535 0.0974152355 0.1695385524
0.2376939689 0.0964255696 0.1685445966
0.2388479020 0.0943991110 0.1680591763
0.2335727792 0.1013738989 0.1702782405
0.2365400358 0.1009026294 0.1690300169
0.2369246802 0.0986405360 0.1688682101
0.2429141426 0.0954359038 0.1663486477
0.2434636345 0.0928910488 0.1661174952
0.2402765811 0.0957657924 0.1674581798
0.2335727792 0.1051440545 0.1702782405
0.2369246802 0.1050026736 0.1688682101
0.2365400358 0.1030704689 0.1690300169
0.2353311535 0.1075946556 0.1695385524
0.2388479020 0.1075946556 0.1680591763
0.2376939689 0.1065578628 0.1685445966
0.2434636345 0.1051440545 0.1661174952
0.2429141426 0.1030704689 0.1663486477
0.2402765811 0.1050026736 0.1674581798
0.2478595702 0.1013738989 0.1642682750
0.2476947226 0.0986405360 0.1643376208
0.2454418056 0.1009026294 0.1652853461
0.2507169284 0.0974152355 0.1630662819
0.2507169284 0.0943991110 0.1630662819
0.2495080461 0.0964255696 0.1635748175
0.2478595702 0.0928910488 0.1642682750
0.2454418056 0.0954359038 0.1652853461
0.2476947226 0.0957657924 0.1643376208
0.2396171908 0.1006669947 0.1677355628
0.2426393966 0.1006669947 0.1664642239
0.2426393966 0.0980750127 0.1664642239
-0.2396143711 0.0917600021 0.1619870195
-0.2191840118 0.0917600021 0.1609829514
-0.2110038706 0.0917600021 0.1597248947
-0.2510651068 0.0917600021 0.1643372384
-0.2245096386 0.0917600021 0.1634601646
-0.2236310400 0.0917600021 0.1622514867
-0.1726531064 0.0917600021 0.1593600634
-0.1705980742 0.0917600021 0.1579750124
-0.1963616567 0.0917600021 0.1600953990
-0.2466735460 0.0917600021 0.1662128639
-0.2162202812 0.0917600021 0.1654166046
-0.2219844911 0.0917600021 0.1645386493
-0.2277571569 0.0917600021 0.1670512082
-0.1956334078 0.0917600021 0.1662895838
-0.2073816922 0.0917600021 0.1660236948
-0.1563255016 0.0917600021 0.1640707952
-0.1637601958 0.0917600021 0.1631582050
-0.1856023328 0.0917600021 0.1646906814
-0.1205623759 0.0917600021 0.1612431392
-0.1252520582 0.0917600021 0.1599190119
-0.1431963986 0.0917600021 0.1615323028
-0.0990729686 0.0917600021 0.1586549126
-0.1025862172 0.0917600021 0.1571544122
-0.1112682921 0.0917600021 0.1584243693
-0.1304433877 0.0917600021 0.1570229819
-0.1495641617 0.0917600021 0.1588126459
-0.1286006234 0.0917600021 0.1584888475
-0.1966758306 0.0917600021 0.1626765167
-0.1690694837 0.0917600021 0.1620219957
-0.1720886818 0.0917600021 0.1607325032
-0.2712359002 0.0974152355 0.1611529405
-0.2688754363 0.0964255696 0.1621610892
-0.2677226516 0.0943991110 0.1626534408
-0.2729925246 0.1013738989 0.1604026903
-0.2700282210 0.1009026294 0.1616687375
-0.2696439594 0.0986405360 0.1618328547
-0.2636604579 0.0954359038 0.1643883944
-0.2631115128 0.0928910488 0.1646228476
-0.2662953943 0.0957657924 0.1632630191
-0.2729925246 0.1051440545 0.1604026903
-0.2696439594 0.1050026736 0.1618328547
-0.2700282210 0.1030704689 0.1616687375
-0.2712359002 0.1075946556 0.1611529405
-0.2677226516 0.1075946556 0.1626534408
-0.2688754363 0.1065578628 0.1621610892
-0.2631115128 0.1051440545 0.1646228476
-0.2636604579 0.1030704689 0.1643883944
-0.2662953943 0.1050026736 0.1632630191
-0.2587199520 0.1013738989 0.1664984730
-0.2588846355 0.0986405360 0.1664281371
-0.2611353104 0.1009026294 0.1654668790
-0.2558654374 0.0974152355 0.1677176296
-0.2558654374 0.0943991110 0.1677176296
-0.2570731167 0.0964255696 0.1672018326
-0.2587199520 0.0928910488 0.1664984730
-0.2611353104 0.0954359038 0.1654668790
-0.2588846355 0.0957657924 0.1664281371
-0.2669541285 0.1006669947 0.1629816753
-0.2639349304 0.1006669947 0.1642711678
-0.2639349304 0.0980750127 0.1642711678
-0.1525099648 0.1158889979 0.1637294258
-0.1709265395 0.1158889979 0.1642866895
-0.2123172150 0.1158889979 0.1638558006
-0.0711584343 0.1158889979 0.1647827153
-0.0780879587 0.1158889979 0.1658340553
-0.1251940713 0.1158889979 0.1649675785
-0.1864885998 0.1158889979 0.1660631098
-0.2393663257 0.1158889979 0.1651381446
-0.1821978567 0.1158889979 0.1650880295
0.0079921894 0.1158889979 0.1665003721
0.0083726061 0.1158889979 0.1678661244
-0.0325763501 0.1158889979 0.1668217080
0.0611967191 0.1158889979 0.1683670992
0.0647099677 0.1158889979 0.1698675996
0.0417907615 0.1158889979 0.1689028923
0.0178732012 0.1158889979 0.1707205294
-0.0262085869 0.1158889979 0.1695413649
0.0117211712 0.1158889979 0.1692962888
-0.0568858617 0.1158889979 0.1708784980
-0.1144347473 0.1158889979 0.1695628608
-0.0691950481 0.1158889979 0.1696321969
-0.1371395020 0.1158889979 0.1702941149
-0.2004600009 0.1158889979 0.1689199894
-0.1591242199 0.1158889979 0.1693274329
-0.2349747649 0.1158889979 0.1670137701
-0.1839634523 0.1158889979 0.1671415945
-0.1747870979 0.1158889979 0.1682531475
-0.0799607801 0.1158889979 0.1670396396
-0.0769415821 0.1158889979 0.1683291321
-0.1313576358 0.1158889979 0.1671482430
-0.2417818122 0.1102337645 -0.1706444572
-0.2393721319 0.1112234304 -0.1714932869
-0.2381953113 0.1132498890 -0.1719078317
-0.2435750626 0.1062751011 -0.1700127700
-0.2405489525 0.1067463706 -0.1710787422
-0.2401566789 0.1090084639 -0.1712169238
-0.2340484196 0.1122130962 -0.1733686084
-0.2334880289 0.1147579512 -0.1735660107
-0.2367382953 0.1118832076 -0.1724210776
-0.2435750626 0.1025049455 -0.1700127700
-0.2401566789 0.1026463264 -0.1712169238
-0.2405489525 0.1045785311 -0.1710787422
-0.2417818122 0.1000543444 -0.1706444572
-0.2381953113 0.1000543444 -0.1719078317
-0.2393721319 0.1010911372 -0.1714932869
-0.2334880289 0.1025049455 -0.1735660107
-0.2340484196 0.1045785311 -0.1733686084
-0.2367382953 0.1026463264 -0.1724210776
-0.2290049028 0.1062751011 -0.1751452287
-0.2291730200 0.1090084639 -0.1750860081
-0.2314706221 0.1067463706 -0.1742766588
-0.2260908708 0.1102337645 -0.1761717205
-0.2260908708 0.1132498890 -0.1761717205
-0.2273237305 0.1112234304 -0.1757374355
-0.2290049028 0.1147579512 -0.1751452287
-0.2314706221 0.1122130962 -0.1742766588
-0.2291730200 0.1118832076 -0.1750860081
-0.2374107642 0.1069820053 -0.1721841948
-0.2343286150 0.1069820053 -0.1732699073
-0.2343286150 0.1095739873 -0.1732699073
-0.2266372634 0.0917600021 -0.1694388804
-0.2063654923 0.0917600021 -0.1718794273
-0.1946613897 0.0917600021 -0.1737998803
-0.2454899726 0.0917600021 -0.1661013807
-0.2209343673 0.0917600021 -0.1688019746
-0.2151782433 0.0917600021 -0.1701912088
-0.1629780961 0.0917600021 -0.1767062870
-0.1555578277 0.0917600021 -0.1783666930
-0.1847012386 0.0917600021 -0.1743477868
-0.2498973147 0.0917600021 -0.1643213811
-0.2226156330 0.0917600021 -0.1671874595
-0.2234685890 0.0917600021 -0.1677784749
-0.2385370870 0.0917600021 -0.1646328815
-0.2100870869 0.0917600021 -0.1675698818
-0.2182102241 0.0917600021 -0.1670956785
-0.1698816894 0.0917600021 -0.1725816943
-0.1719029638 0.0917600021 -0.1731017878
-0.1954992267 0.0917600021 -0.1699867878
-0.1299118472 0.0917600021 -0.1780329442
-0.1280501180 0.0917600021 -0.1791857720
-0.1489203045 0.0917600021 -0.1762362565
-0.1021685130 0.0917600021 -0.1822882565
-0.0986426394 0.0917600021 -0.1837122561
-0.1107912732 0.0917600021 -0.1817459125
-0.1199953276 0.0917600021 -0.1820379433
-0.1425296586 0.0917600021 -0.1788172559
-0.1246895197 0.0917600021 -0.1805430217
-0.1957651583 0.0917600021 -0.1714830998
-0.1713159395 0.0917600021 -0.1740070844
-0.1682858918 0.0917600021 -0.1752308341
0.1604092512 0.1158889979 -0.1761717205
0.1216447200 0.1158889979 -0.1757374355
0.1008782517 0.1158889979 -0.1761717205
0.1930887814 0.1158889979 -0.1751452287
0.1453252187 0.1158889979 -0.1742766588
0.1365164147 0.1158889979 -0.1750860081
0.0374252821 0.1158889979 -0.1742766588
0.0256578453 0.1158889979 -0.1751452287
0.0797759308 0.1158889979 -0.1750860081
0.1975719052 0.1158889979 -0.1735660107
0.1440816860 0.1158889979 -0.1724210776
0.1479030148 0.1158889979 -0.1733686084
0.1725136854 0.1158889979 -0.1719078317
0.1165691849 0.1158889979 -0.1706444572
0.1336931151 0.1158889979 -0.1714932869
0.0402279976 0.1158889979 -0.1700127700
0.0465036077 0.1158889979 -0.1710787422
0.0907595840 0.1158889979 -0.1712169238
-0.0341857518 0.1158889979 -0.1700127700
-0.0348136181 0.1158889979 -0.1712169238
0.0037157018 0.1158889979 -0.1710787422
-0.0843479384 0.1158889979 -0.1706444572
-0.0879344374 0.1158889979 -0.1719078317
-0.0662938364 0.1158889979 -0.1714932869
-0.0442727803 0.1158889979 -0.1735660107
-0.0027848277 0.1158889979 -0.1733686084
-0.0382320000 0.1158889979 -0.1724210776
0.0960935855 0.1158889979 -0.1732699073
0.0480162804 0.1158889979 -0.1721841948
0.0449341328 0.1158889979 -0.1732699073
0.1410229871 0.0917600021 -0.1885603589
0.1497123369 0.0917600021 -0.1876329897
0.1636916126 0.0917600021 -0.1868867332
0.1142278146 0.0917600021 -0.1898630400
0.1202722014 0.0917600021 -0.1888451144
0.1349418756 0.0917600021 -0.1882947424
0.1613590850 0.0917600021 -0.1858116676
0.1779833237 0.0917600021 -0.1851559675
0.1565479092 0.0917600021 -0.1866995679
0.0904418765 0.0917600021 -0.1905797602
0.0948031050 0.0917600021 -0.1895042078
0.1065952870 0.0917600021 -0.1892572285
0.0768009542 0.0917600021 -0.1904955036
0.0804408292 0.0917600021 -0.1893952540
0.0857876282 0.0917600021 -0.1895591753
0.1006790249 0.0917600021 -0.1874853083
0.1131925604 0.0917600021 -0.1872630261
0.0982723609 0.0917600021 -0.1884555325
0.1290148067 0.0917600021 -0.1853932760
0.1460889927 0.0917600021 -0.1849252281
0.1294856349 0.0917600021 -0.1860601076
0.1569474401 0.0917600021 -0.1837467670
0.1759761906 0.0917600021 -0.1831733908
0.1619400419 0.0917600021 -0.1839368387
0.1825331674 0.0917600021 -0.1837806555
0.1639752452 0.0917600021 -0.1850208633
0.1642257705 0.0917600021 -0.1843787289
0.1249437131 0.0917600021 -0.1878376010
0.1280717307 0.0917600021 -0.1868920740
0.1444245631 0.0917600021 -0.1863993288
0.2057741901 0.1102337645 -0.1785405476
0.2081838692 0.1112234304 -0.1776917179
0.2093606892 0.1132498890 -0.1772771731
0.2039809406 0.1062751011 -0.1791722348
0.2070070492 0.1067463706 -0.1781062626
0.2073993225 0.1090084639 -0.1779680811
0.2135075787 0.1122130962 -0.1758163964
0.2140679691 0.1147579512 -0.1756189942
0.2108177044 0.1118832076 -0.1767639273
0.2039809406 0.1025049455 -0.1791722348
0.2073993225 0.1026463264 -0.1779680811
0.2070070492 0.1045785311 -0.1781062626
0.2057741901 0.1000543444 -0.1785405476
0.2093606892 0.1000543444 -0.1772771731
0.2081838692 0.1010911372 -0.1776917179
0.2140679691 0.1025049455 -0.1756189942
0.2135075787 0.1045785311 -0.1758163964
0.2108177044 0.1026463264 -0.1767639273
0.2185510929 0.1062751011 -0.1740397761
0.2183829758 0.1090084639 -0.1740989968
0.2160853748 0.1067463706 -0.1749083460
0.2214651234 0.1102337645 -0.1730132843
0.2214651234 0.1132498890 -0.1730132843
0.2202322643 0.1112234304 -0.1734475693
0.2185510929 0.1147579512 -0.1740397761
0.2160853748 0.1122130962 -0.1749083460
0.2183829758 0.1118832076 -0.1740989968
0.2101452358 0.1069820053 -0.1770008100
0.2132273834 0.1069820053 -0.1759150976
0.2132273834 0.1095739873 -0.1759150976
0.1576439381 0.0917600021 0.1757567476
0.1626682270 0.0917600021 0.1776322478
0.1767786880 0.0917600021 0.1803052470
0.1295648677 0.0917600021 0.1706921712
0.1300460706 0.0917600021 0.1721689219
0.1467346938 0.0917600021 0.1748664793
0.1647278048 0.0917600021 0.1804130769
0.1833813518 0.0917600021 0.1834848257
0.1649725023 0.0917600021 0.1792017677
0.1010853363 0.0917600021 0.1663993609
0.0986754844 0.0917600021 0.1676223618
0.1136703400 0.0917600021 0.1697005559
0.0807492032 0.0917600021 0.1641661597
0.0771003279 0.0917600021 0.1652804108
0.0861294862 0.0917600021 0.1660953200
0.0908228745 0.0917600021 0.1695331921
0.1070567536 0.0917600021 0.1717201360
0.0951976502 0.0917600021 0.1686843824
0.1147413119 0.0917600021 0.1752188163
0.1355600132 0.0917600021 0.1782788732
0.1208098551 0.0917600021 0.1749893699
0.1416801088 0.0917600021 0.1806315961
0.1644637339 0.0917600021 0.1840658444
0.1504102866 0.0917600021 0.1813754350
0.1788202577 0.0917600021 0.1848776395
0.1621051757 0.0917600021 0.1812139449
0.1572756560 0.0917600021 0.1815521411
0.1286332755 0.0917600021 0.1734121922
0.1254975233 0.0917600021 0.1743697517
0.1450772012 0.0917600021 0.1773210588
0.2066948446 0.0974152355 0.1800848073
0.2091050280 0.0964255696 0.1792123787
0.2102820943 0.0943991110 0.1787863090
0.2049012198 0.1013738989 0.1807340565
0.2079279617 0.1009026294 0.1796384485
0.2083203171 0.0986405360 0.1794964253
0.2144298517 0.0954359038 0.1772849202
0.2149903595 0.0928910488 0.1770820299
0.2117394145 0.0957657924 0.1782587940
0.2049012198 0.1051440545 0.1807340565
0.2083203171 0.1050026736 0.1794964253
0.2079279617 0.1030704689 0.1796384485
0.2066948446 0.1075946556 0.1800848073
0.2102820943 0.1075946556 0.1787863090
0.2091050280 0.1065578628 0.1792123787
0.2149903595 0.1051440545 0.1770820299
0.2144298517 0.1030704689 0.1772849202
0.2117394145 0.1050026736 0.1782587940
0.2194744216 0.1013738989 0.1754589069
0.2193062693 0.0986405360 0.1755197740
0.2170081874 0.1009026294 0.1763516245
0.2223890619 0.0974152355 0.1744038770
0.2223890619 0.0943991110 0.1744038770
0.2211559449 0.0964255696 0.1748502358
0.2194744216 0.0928910488 0.1754589069
0.2170081874 0.0954359038 0.1763516245
0.2193062693 0.0957657924 0.1755197740
0.2110668052 0.1006669947 0.1785022625
0.2141495979 0.1006669947 0.1773863654
0.2141495979 0.0980750127 0.1773863654
0.2291151551 0.1102337645 0.1719691926
0.2267049717 0.1112234304 0.1728416212
0.2255279054 0.1132498890 0.1732676909
0.2309087799 0.1062751011 0.1713199434
0.2278820380 0.1067463706 0.1724155514
0.2274896826 0.1090084639 0.1725575746
0.2213801480 0.1122130962 0.1747690797
0.2208196402 0.1147579512 0.1749719700
0.2240705852 0.1118832076 0.1737952059
0.2309087799 0.1025049455 0.1713199434
0.2274896826 0.1026463264 0.1725575746
0.2278820380 0.1045785311 0.1724155514
0.2291151551 0.1000543444 0.1719691926
0.2255279054 0.1000543444 0.1732676909
0.2267049717 0.1010911372 0.1728416212
0.2208196402 0.1025049455 0.1749719700
0.2213801480 0.1045785311 0.1747690797
0.2240705852 0.1026463264 0.1737952059
0.2163355781 0.1062751011 0.1765950930
0.2165037305 0.1090084639 0.1765342259
0.2188018123 0.1067463706 0.1757023754
0.2134209378 0.1102337645 0.1776501229
0.2134209378 0.1132498890 0.1776501229
0.2146540548 0.1112234304 0.1772037641
0.2163355781 0.1147579512 0.1765950930
0.2188018123 0.1122130962 0.1757023754
0.2165037305 0.1118832076 0.1765342259
0.2247431945 0.1069820053 0.1735517374
0.2216604018 0.1069820053 0.1746676345
0.2216604018 0.1095739873 0.1746676345
-0.2144423152 0.0917600021 0.1723244102
-0.1963969477 0.0917600021 0.1703740864
-0.1894198150 0.0917600021 0.1687504114
-0.2240383150 0.0917600021 0.1751773072
-0.2004588303 0.0917600021 0.1730636591
-0.2000205570 0.0917600021 0.1718323337
-0.1551055486 0.0917600021 0.1665857863
-0.1536625332 0.0917600021 0.1651254356
-0.1761709865 0.0917600021 0.1684258661
-0.2195533146 0.0917600021 0.1768171497
-0.1924521188 0.0917600021 0.1745995680
-0.1978799550 0.0917600021 0.1740065686
-0.2023328141 0.0917600021 0.1767519850
-0.1737223136 0.0917600021 0.1744898602
-0.1843435092 0.0917600021 0.1747811632
-0.1390862819 0.0917600021 0.1704549238
-0.1460234229 0.0917600021 0.1699064674
-0.1651827355 0.0917600021 0.1724434803
-0.1078081567 0.0917600021 0.1659874253
-0.1124008992 0.0917600021 0.1649045765
-0.1280385008 0.0917600021 0.1673376557
-0.0892713754 0.0917600021 0.1624276142
-0.0928593758 0.0917600021 0.1611157402
-0.1002835476 0.0917600021 0.1627747609
-0.1178994076 0.0917600021 0.1622977796
-0.1345417514 0.0917600021 0.1649598841
-0.1158207120 0.0917600021 0.1636541966
-0.1757049548 0.0917600021 0.1709818098
-0.1511178060 0.0917600021 0.1690377963
-0.1542012437 0.0917600021 0.1679104045
-0.2492780962 0.1102337645 0.1705310678
-0.2516385602 0.1112234304 0.1695229191
-0.2527913449 0.1132498890 0.1690305674
-0.2475214719 0.1062751011 0.1712813179
-0.2504857755 0.1067463706 0.1700152708
-0.2508700370 0.1090084639 0.1698511535
-0.2568535386 0.1122130962 0.1672956139
-0.2574024837 0.1147579512 0.1670611607
-0.2542186021 0.1118832076 0.1684209891
-0.2475214719 0.1025049455 0.1712813179
-0.2508700370 0.1026463264 0.1698511535
-0.2504857755 0.1045785311 0.1700152708
-0.2492780962 0.1000543444 0.1705310678
-0.2527913449 0.1000543444 0.1690305674
-0.2516385602 0.1010911372 0.1695229191
-0.2574024837 0.1025049455 0.1670611607
-0.2568535386 0.1045785311 0.1672956139
-0.2542186021 0.1026463264 0.1684209891
-0.2617940445 0.1062751011 0.1651855352
-0.2616293610 0.1090084639 0.1652558712
-0.2593786861 0.1067463706 0.1662171292
-0.2646485590 0.1102337645 0.1639663787
-0.2646485590 0.1132498890 0.1639663787
-0.2634408798 0.1112234304 0.1644821757
-0.2617940445 0.1147579512 0.1651855352
-0.2593786861 0.1122130962 0.1662171292
-0.2616293610 0.1118832076 0.1652558712
-0.2535598680 0.1069820053 0.1687023329
-0.2565790661 0.1069820053 0.1674128404
-0.2565790661 0.1095739873 0.1674128404
0.1731965614 0.1158889979 0.1733782690
0.1341906314 0.1158889979 0.1730371073
0.1169765608 0.1158889979 0.1722061455
0.1983919214 0.1158889979 0.1750193606
0.1484900617 0.1158889979 0.1749230991
0.1446390809 0.1158889979 0.1739630475
0.0465913106 0.1158889979 0.1727986253
0.0402731696 0.1158889979 0.1717227633
0.0910543929 0.1158889979 0.1728458673
0.1939078593 0.1158889979 0.1766424836
0.1370722262 0.1158889979 0.1767020675
0.1459117260 0.1158889979 0.1758563948
0.1610895938 0.1158889979 0.1777607009
0.1012823435 0.1158889979 0.1778870758
0.1221397146 0.1158889979 0.1773992502
0.0256999679 0.1158889979 0.1769979129
0.0375110849 0.1158889979 0.1760854492
0.0800684408 0.1158889979 0.1768225186
-0.0445750329 0.1158889979 0.1755327586
-0.0385206230 0.1158889979 0.1743500706
-0.0028970406 0.1158889979 0.1752429855
-0.0884601586 0.1158889979 0.1739311591
-0.0848729089 0.1158889979 0.1726326607
-0.0667243500 0.1158889979 0.1734616479
-0.0344858932 0.1158889979 0.1718807319
0.0036048495 0.1158889979 0.1728894572
-0.0351015257 0.1158889979 0.1731124394
0.0964389716 0.1158889979 0.1749322319
0.0450421159 0.1158889979 0.1750408353
0.0481249086 0.1158889979 0.1739249383
-0.2193661816 0.0974152355 -0.1785405476
-0.2217758619 0.0964255696 -0.1776917179
-0.2229526825 0.0943991110 -0.1772771731
-0.2175729312 0.1013738989 -0.1791722348
-0.2205990413 0.1009026294 -0.1781062626
-0.2209913149 0.0986405360 -0.1779680811
-0.2270995742 0.0954359038 -0.1758163964
-0.2276599649 0.0928910488 -0.1756189942
-0.2244096985 0.0957657924 -0.1767639273
-0.2175729312 0.1051440545 -0.1791722348
-0.2209913149 0.1050026736 -0.1779680811
-0.2205990413 0.1030704689 -0.1781062626
-0.2193661816 0.1075946556 -0.1785405476
-0.2229526825 0.1075946556 -0.1772771731
-0.2217758619 0.1065578628 -0.1776917179
-0.2276599649 0.1051440545 -0.1756189942
-0.2270995742 0.1030704689 -0.1758163964
-0.2244096985 0.1050026736 -0.1767639273
-0.2321430910 0.1013738989 -0.1740397761
-0.2319749738 0.0986405360 -0.1740989968
-0.2296773717 0.1009026294 -0.1749083460
-0.2350571230 0.0974152355 -0.1730132843
-0.2350571230 0.0943991110 -0.1730132843
-0.2338242633 0.0964255696 -0.1734475693
-0.2321430910 0.0928910488 -0.1740397761
-0.2296773717 0.0954359038 -0.1749083460
-0.2319749738 0.0957657924 -0.1740989968
-0.2237372296 0.1006669947 -0.1770008100
-0.2268193788 0.1006669947 -0.1759150976
-0.2268193788 0.0980750127 -0.1759150976
