0.0229897660 -0.0382700945 -0.0747087668 0.0000000000 -0.1837777919 0.9829678139
0.0041015625 -0.0549833056 -0.0778334889 0.0000000000 -0.1837777532 0.9829678212
0.0217019340 -0.0571498330 -0.0782385455 0.0000000000 -0.1837777606 0.9829678198
-0.0113524221 -0.0382700945 -0.0747087668 0.0000000000 -0.1837777919 0.9829678139
-0.0362505085 -0.0571498330 -0.0782385455 0.0000000000 -0.1837777606 0.9829678198
-0.0156451956 -0.0549833056 -0.0778334889 0.0000000000 -0.1837777532 0.9829678212
-0.0474117197 -0.0481742196 -0.0765604540 0.0000000000 -0.1837778081 0.9829678109
-0.0748854702 -0.0679824698 -0.0802638284 0.0000000000 -0.1837778081 0.9829678109
-0.0564265441 -0.0614828877 -0.0790486587 0.0000000000 -0.1837777753 0.9829678170
-0.0886223455 -0.0939807983 -0.0851245073 0.0000000000 -0.1837777919 0.9829678139
-0.0654413685 -0.0908857592 -0.0845458551 0.0000000000 -0.1837777532 0.9829678212
-0.0624364270 -0.0760295715 -0.0817683242 0.0000000000 -0.1837777606 0.9829678198
-0.0177915824 -0.0893382396 -0.0842565289 0.0000000000 -0.1837777470 0.9829678223
-0.0177915824 -0.0723155246 -0.0810739415 0.0000000000 -0.1837777470 0.9829678223
-0.0414018368 -0.0893382396 -0.0842565289 0.0000000000 -0.1837777470 0.9829678223
0.1555780019 0.3159305910 -0.0163791563 -0.4907190564 -0.8713178569 0.0000000000
0.1518256268 0.3178099162 -0.0185517539 -0.4788739564 -0.8778836676 0.0000000000
0.1555780019 0.3159305910 -0.0230004062 -0.4907190564 -0.8713178569 0.0000000000
0.1467087517 0.3203726325 -0.0076887657 -0.4629276683 -0.8863960593 0.0000000000
0.1392040015 0.3241312830 -0.0087233360 -0.4391804159 -0.8983988882 0.0000000000
0.1461970642 0.3206289041 -0.0136892735 -0.4612425609 -0.8872740840 0.0000000000
0.1392040015 0.3241312830 -0.0207243515 -0.4391804159 -0.8983988882 0.0000000000
0.1467087517 0.3203726325 -0.0263110312 -0.4629276683 -0.8863960593 0.0000000000
0.1461970642 0.3206289041 -0.0200001523 -0.4612425609 -0.8872740840 0.0000000000
0.1330637514 0.3272065425 0.0005877967 -0.4194190554 -0.9077927384 0.0000000000
0.1231711262 0.3321611272 0.0002774256 -0.3876562265 -0.9218040193 0.0000000000
0.1313581264 0.3280607812 -0.0039643126 -0.4141437951 -0.9102114683 0.0000000000
0.1187365011 0.3343821480 0.0059675623 -0.3726234618 -0.9279826268 0.0000000000
0.1078205009 0.3398492760 0.0059675623 -0.3366294337 -0.9416372042 0.0000000000
0.1151546885 0.3361760494 0.0036915076 -0.3613244050 -0.9324401720 0.0000000000
0.1023625007 0.3425828400 0.0005877967 -0.3189125576 -0.9477841424 0.0000000000
0.1115728759 0.3379699507 -0.0039643126 -0.3499679381 -0.9367616785 0.0000000000
0.1127668135 0.3373719836 0.0002774256 -0.3537435753 -0.9353424416 0.0000000000
0.1023625007 0.3425828400 -0.0076887657 -0.3189125576 -0.9477841424 0.0000000000
0.1127668135 0.3373719836 -0.0136892735 -0.3537435753 -0.9353424416 0.0000000000
0.1115728759 0.3379699507 -0.0087233360 -0.3499679381 -0.9367616785 0.0000000000
0.1078205009 0.3398492760 -0.0163791563 -0.3366294337 -0.9416372042 0.0000000000
0.1187365011 0.3343821480 -0.0230004062 -0.3726234618 -0.9279826268 0.0000000000
0.1151546885 0.3361760494 -0.0185517539 -0.3613244050 -0.9324401720 0.0000000000
0.1330637514 0.3272065425 -0.0263110312 -0.4194190554 -0.9077927384 0.0000000000
0.1313581264 0.3280607812 -0.0207243515 -0.4141437951 -0.9102114683 0.0000000000
0.1231711262 0.3321611272 -0.0200001523 -0.3876562265 -0.9218040193 0.0000000000
0.1305053138 0.3284879006 -0.0092406212 -0.4114470286 -0.9114336743 0.0000000000
0.1211243761 0.3331862137 -0.0092406212 -0.3811751523 -0.9245028411 0.0000000000
0.1305053138 0.3284879006 -0.0149307578 -0.4114470286 -0.9114336743 0.0000000000
0.1548418298 0.3136287876 0.0241759997 0.0000000000 0.0000000000 -1.0000000000
0.1512182848 0.3159109285 0.0241759997 0.0000000000 0.0000000000 -1.0000000000
0.1552344549 0.3148564161 0.0241759997 0.0000000000 0.0000000000 -1.0000000000
0.1454572591 0.3164595668 0.0241759997 0.0000000000 0.0000000000 -1.0000000000
0.1380138567 0.3204100343 0.0241759997 0.0000000000 0.0000000000 -1.0000000000
0.1453013881 0.3178283767 0.0241759997 0.0000000000 0.0000000000 -1.0000000000
0.1387254897 0.3226351108 0.0241759997 0.0000000000 0.0000000000 -1.0000000000
0.1465615173 0.3199122718 0.0241759997 0.0000000000 0.0000000000 -1.0000000000
0.1456756089 0.3189984601 0.0241759997 0.0000000000 0.0000000000 -1.0000000000
0.1313214775 0.3217589413 0.0241759997 0.0000000000 0.0000000000 -1.0000000000
0.1214472566 0.3267710711 0.0241759997 0.0000000000 0.0000000000 -1.0000000000
0.1298857822 0.3234571746 0.0241759997 0.0000000000 0.0000000000 -1.0000000000
0.1166752193 0.3279370987 0.0241759997 0.0000000000 0.0000000000 -1.0000000000
0.1057592190 0.3334042267 0.0241759997 0.0000000000 0.0000000000 -1.0000000000
0.1132283716 0.3301529973 0.0241759997 0.0000000000 0.0000000000 -1.0000000000
0.1006202268 0.3371352388 0.0241759997 0.0000000000 0.0000000000 -1.0000000000
0.1101005318 0.3333663441 0.0241759997 0.0000000000 0.0000000000 -1.0000000000
0.1110429438 0.3319819275 0.0241759997 0.0000000000 0.0000000000 -1.0000000000
0.1011110082 0.3386697744 0.0241759997 0.0000000000 0.0000000000 -1.0000000000
0.1118711374 0.3345714562 0.0241759997 0.0000000000 0.0000000000 -1.0000000000
0.1103827311 0.3342487020 0.0241759997 0.0000000000 0.0000000000 -1.0000000000
0.1070843288 0.3375474727 0.0241759997 0.0000000000 0.0000000000 -1.0000000000
0.1183929541 0.3333079731 0.0241759997 0.0000000000 0.0000000000 -1.0000000000
0.1145473465 0.3342770616 0.0241759997 0.0000000000 0.0000000000 -1.0000000000
0.1329165170 0.3267461818 0.0241759997 0.0000000000 0.0000000000 -1.0000000000
0.1308796145 0.3265646091 0.0241759997 0.0000000000 0.0000000000 -1.0000000000
0.1226496710 0.3305306832 0.0241759997 0.0000000000 0.0000000000 -1.0000000000
0.1293458428 0.3248625604 0.0241759997 0.0000000000 0.0000000000 -1.0000000000
0.1199649051 0.3295608735 0.0241759997 0.0000000000 0.0000000000 -1.0000000000
0.1296832550 0.3259175536 0.0241759997 0.0000000000 0.0000000000 -1.0000000000
0.1505719326 0.3070427822 0.0117611560 0.4907226047 0.8713158585 0.0000000000
0.1469416750 0.3088610038 0.0139337537 0.4788820778 0.8778792374 0.0000000000
0.1505719326 0.3070427822 0.0183824060 0.4907226047 0.8713158585 0.0000000000
0.1419913239 0.3113403970 0.0030707655 0.4629302825 0.8863946940 0.0000000000
0.1347308089 0.3149768403 0.0041053358 0.4391771935 0.8984004634 0.0000000000
0.1414962888 0.3115883363 0.0090712732 0.4612472866 0.8872716273 0.0000000000
0.1347308089 0.3149768403 0.0161063513 0.4391771935 0.8984004634 0.0000000000
0.1419913239 0.3113403970 0.0216930310 0.4629302825 0.8863946940 0.0000000000
0.1414962888 0.3115883363 0.0153821521 0.4612472866 0.8872716273 0.0000000000
0.1287903875 0.3179521121 -0.0052057970 0.4194142540 0.9077949568 0.0000000000
0.1192197087 0.3227456055 -0.0048954259 0.3876353629 0.9218127931 0.0000000000
0.1271402705 0.3187785764 -0.0006536876 0.4141307756 0.9102173920 0.0000000000
0.1149294043 0.3248944129 -0.0105855626 0.3726171447 0.9279851634 0.0000000000
0.1043686552 0.3301837849 -0.0105855626 0.3366200672 0.9416405526 0.0000000000
0.1114641585 0.3266299881 -0.0083095079 0.3613015751 0.9324490184 0.0000000000
0.0990882807 0.3328284710 -0.0052057970 0.3188903966 0.9477915989 0.0000000000
0.1079989127 0.3283655633 -0.0006536876 0.3499295983 0.9367760011 0.0000000000
0.1091539947 0.3277870382 -0.0048954259 0.3537108011 0.9353548360 0.0000000000
0.0990882807 0.3328284710 0.0030707655 0.3188903966 0.9477915989 0.0000000000
0.1091539947 0.3277870382 0.0090712732 0.3537108011 0.9353548360 0.0000000000
0.1079989127 0.3283655633 0.0041053358 0.3499295983 0.9367760011 0.0000000000
0.1043686552 0.3301837849 0.0117611560 0.3366200672 0.9416405526 0.0000000000
0.1149294043 0.3248944129 0.0183824060 0.3726171447 0.9279851634 0.0000000000
0.1114641585 0.3266299881 0.0139337537 0.3613015751 0.9324490184 0.0000000000
0.1287903875 0.3179521121 0.0216930310 0.4194142540 0.9077949568 0.0000000000
0.1271402705 0.3187785764 0.0161063513 0.4141307756 0.9102173920 0.0000000000
0.1192197087 0.3227456055 0.0153821521 0.3876353629 0.9218127931 0.0000000000
0.1263152120 0.3191918086 0.0046226209 0.4114316235 0.9114406285 0.0000000000
0.1172395682 0.3237373627 0.0046226209 0.3811466837 0.9245145783 0.0000000000
0.1263152120 0.3191918086 0.0103127576 0.4114316235 0.9114406285 0.0000000000
0.1166752193 0.3279370987 -0.0287939999 0.0000000000 0.0000000000 1.0000000000
0.1132283716 0.3301529973 -0.0287939999 0.0000000000 0.0000000000 1.0000000000
0.1057592190 0.3334042267 -0.0287939999 0.0000000000 0.0000000000 1.0000000000
0.1313214775 0.3217589413 -0.0287939999 0.0000000000 0.0000000000 1.0000000000
0.1298857822 0.3234571746 -0.0287939999 0.0000000000 0.0000000000 1.0000000000
0.1214472566 0.3267710711 -0.0287939999 0.0000000000 0.0000000000 1.0000000000
0.1101005318 0.3333663441 -0.0287939999 0.0000000000 0.0000000000 1.0000000000
0.1006202268 0.3371352388 -0.0287939999 0.0000000000 0.0000000000 1.0000000000
0.1110429438 0.3319819275 -0.0287939999 0.0000000000 0.0000000000 1.0000000000
0.1454572591 0.3164595668 -0.0287939999 0.0000000000 0.0000000000 1.0000000000
0.1453013881 0.3178283767 -0.0287939999 0.0000000000 0.0000000000 1.0000000000
0.1380138567 0.3204100343 -0.0287939999 0.0000000000 0.0000000000 1.0000000000
0.1548418298 0.3136287876 -0.0287939999 0.0000000000 0.0000000000 1.0000000000
0.1552344549 0.3148564161 -0.0287939999 0.0000000000 0.0000000000 1.0000000000
0.1512182848 0.3159109285 -0.0287939999 0.0000000000 0.0000000000 1.0000000000
0.1465615173 0.3199122718 -0.0287939999 0.0000000000 0.0000000000 1.0000000000
0.1387254897 0.3226351108 -0.0287939999 0.0000000000 0.0000000000 1.0000000000
0.1456756089 0.3189984601 -0.0287939999 0.0000000000 0.0000000000 1.0000000000
0.1329165170 0.3267461818 -0.0287939999 0.0000000000 0.0000000000 1.0000000000
0.1226496710 0.3305306832 -0.0287939999 0.0000000000 0.0000000000 1.0000000000
0.1308796145 0.3265646091 -0.0287939999 0.0000000000 0.0000000000 1.0000000000
0.1183929541 0.3333079731 -0.0287939999 0.0000000000 0.0000000000 1.0000000000
0.1070843288 0.3375474727 -0.0287939999 0.0000000000 0.0000000000 1.0000000000
0.1145473465 0.3342770616 -0.0287939999 0.0000000000 0.0000000000 1.0000000000
0.1011110082 0.3386697744 -0.0287939999 0.0000000000 0.0000000000 1.0000000000
0.1103827311 0.3342487020 -0.0287939999 0.0000000000 0.0000000000 1.0000000000
0.1118711374 0.3345714562 -0.0287939999 0.0000000000 0.0000000000 1.0000000000
0.1293458428 0.3248625604 -0.0287939999 0.0000000000 0.0000000000 1.0000000000
0.1296832550 0.3259175536 -0.0287939999 0.0000000000 0.0000000000 1.0000000000
0.1199649051 0.3295608735 -0.0287939999 0.0000000000 0.0000000000 1.0000000000
-0.1155438434 -0.0459470004 -0.0060600935 0.0000000000 -1.0000000000 0.0000000000
-0.1178991680 -0.0459470004 -0.0054486052 0.0000000000 -1.0000000000 0.0000000000
-0.1202413441 -0.0459470004 -0.0060600935 0.0000000000 -1.0000000000 0.0000000000
-0.1113022725 -0.0459470004 -0.0046147576 0.0000000000 -1.0000000000 0.0000000000
-0.1136641715 -0.0459470004 -0.0033917810 0.0000000000 -1.0000000000 0.0000000000
-0.1156703767 -0.0459470004 -0.0045313728 0.0000000000 -1.0000000000 0.0000000000
-0.1221783915 -0.0459470004 -0.0033917810 0.0000000000 -1.0000000000 0.0000000000
-0.1245139933 -0.0459470004 -0.0046147576 0.0000000000 -1.0000000000 0.0000000000
-0.1201476821 -0.0459470004 -0.0045313728 0.0000000000 -1.0000000000 0.0000000000
-0.1083902410 -0.0459470004 -0.0023911639 0.0000000000 -1.0000000000 0.0000000000
-0.1107563236 -0.0459470004 -0.0007790584 0.0000000000 -1.0000000000 0.0000000000
-0.1119897533 -0.0459470004 -0.0021132146 0.0000000000 -1.0000000000 0.0000000000
-0.1076813583 -0.0459470004 -0.0000563905 0.0000000000 -1.0000000000 0.0000000000
-0.1100492339 -0.0459470004 0.0017224845 0.0000000000 -1.0000000000 0.0000000000
-0.1100730834 -0.0459470004 0.0005273029 0.0000000000 -1.0000000000 0.0000000000
-0.1150498910 -0.0459470004 0.0026119219 0.0000000000 -1.0000000000 0.0000000000
-0.1162815278 -0.0459470004 0.0011109962 0.0000000000 -1.0000000000 0.0000000000
-0.1130132050 -0.0459470004 0.0009164318 0.0000000000 -1.0000000000 0.0000000000
-0.1209217669 -0.0459470004 0.0026119219 0.0000000000 -1.0000000000 0.0000000000
-0.1229219956 -0.0459470004 0.0009164318 0.0000000000 -1.0000000000 0.0000000000
-0.1196578564 -0.0459470004 0.0011109962 0.0000000000 -1.0000000000 0.0000000000
-0.1259032988 -0.0459470004 0.0017224845 0.0000000000 -1.0000000000 0.0000000000
-0.1282329240 -0.0459470004 -0.0000563905 0.0000000000 -1.0000000000 0.0000000000
-0.1258537499 -0.0459470004 0.0005273029 0.0000000000 -1.0000000000 0.0000000000
-0.1274738378 -0.0459470004 -0.0023911639 0.0000000000 -1.0000000000 0.0000000000
-0.1238803021 -0.0459470004 -0.0021132146 0.0000000000 -1.0000000000 0.0000000000
-0.1251424196 -0.0459470004 -0.0007790584 0.0000000000 -1.0000000000 0.0000000000
-0.1159180645 -0.0459470004 -0.0019742400 0.0000000000 -1.0000000000 0.0000000000
-0.1179529576 -0.0459470004 -0.0004455194 0.0000000000 -1.0000000000 0.0000000000
-0.1199549792 -0.0459470004 -0.0019742400 0.0000000000 -1.0000000000 0.0000000000
0.0693517200 -0.0853146888 -0.0835042810 0.0000000000 -0.1837778081 0.9829678109
0.0783665444 -0.0921237748 -0.0847773160 0.0000000000 -0.1837777753 0.9829678170
0.0968254706 -0.0853146888 -0.0835042810 0.0000000000 -0.1837778081 0.9829678109
0.0332924225 -0.1014088921 -0.0865132727 0.0000000000 -0.1837777919 0.9829678139
0.0375851960 -0.1150270642 -0.0890593426 0.0000000000 -0.1837777532 0.9829678212
0.0581905089 -0.1023374039 -0.0866868684 0.0000000000 -0.1837777606 0.9829678198
0.0873813688 -0.1150270642 -0.0890593426 0.0000000000 -0.1837777532 0.9829678212
0.1105623458 -0.1014088921 -0.0865132727 0.0000000000 -0.1837777919 0.9829678139
0.0843764274 -0.1023374039 -0.0866868684 0.0000000000 -0.1837777606 0.9829678198
-0.0010497657 -0.1261692049 -0.0911424907 0.0000000000 -0.1837777919 0.9829678139
0.0002380664 -0.1441204317 -0.0944986738 0.0000000000 -0.1837777606 0.9829678198
0.0178384378 -0.1292642440 -0.0917211430 0.0000000000 -0.1837777532 0.9829678212
-0.0233721880 -0.1521675334 -0.0960031697 0.0000000000 -0.1837778081 0.9829678109
-0.0233721880 -0.1719757836 -0.0997065441 0.0000000000 -0.1837778081 0.9829678109
-0.0139280862 -0.1586671155 -0.0972183394 0.0000000000 -0.1837777753 0.9829678170
-0.0010497657 -0.1818799087 -0.1015582313 0.0000000000 -0.1837777919 0.9829678139
0.0178384378 -0.1651666976 -0.0984335091 0.0000000000 -0.1837777532 0.9829678212
0.0002380664 -0.1630001702 -0.0980284525 0.0000000000 -0.1837777606 0.9829678198
0.0332924225 -0.1818799087 -0.1015582313 0.0000000000 -0.1837777919 0.9829678139
0.0581905089 -0.1630001702 -0.0980284525 0.0000000000 -0.1837777606 0.9829678198
0.0375851960 -0.1651666976 -0.0984335091 0.0000000000 -0.1837777532 0.9829678212
0.0693517200 -0.1719757836 -0.0997065441 0.0000000000 -0.1837778081 0.9829678109
0.0968254706 -0.1521675334 -0.0960031697 0.0000000000 -0.1837778081 0.9829678109
0.0783665444 -0.1586671155 -0.0972183394 0.0000000000 -0.1837777753 0.9829678170
0.1105623458 -0.1261692049 -0.0911424907 0.0000000000 -0.1837777919 0.9829678139
0.0873813688 -0.1292642440 -0.0917211430 0.0000000000 -0.1837777532 0.9829678212
0.0843764274 -0.1441204317 -0.0944986738 0.0000000000 -0.1837777606 0.9829678198
0.0397315828 -0.1308117636 -0.0920104691 0.0000000000 -0.1837777470 0.9829678223
0.0397315828 -0.1478344786 -0.0951930565 0.0000000000 -0.1837777470 0.9829678223
0.0633418371 -0.1308117636 -0.0920104691 0.0000000000 -0.1837777470 0.9829678223
0.0693517200 -0.1802506526 -0.0907983137 0.0000000000 0.1837779212 -0.9829677898
0.0783665444 -0.1788824848 -0.0905424779 0.0000000000 0.1837781278 -0.9829677511
0.0968254706 -0.1802506526 -0.0907983137 0.0000000000 0.1837779212 -0.9829677898
0.0332924225 -0.1770168016 -0.0901936109 0.0000000000 0.1837780219 -0.9829677709
0.0375851960 -0.1742804660 -0.0896819392 0.0000000000 0.1837782738 -0.9829677238
0.0581905089 -0.1768302332 -0.0901587242 0.0000000000 0.1837782242 -0.9829677331
0.0873813688 -0.1742804660 -0.0896819392 0.0000000000 0.1837782738 -0.9829677238
0.1105623458 -0.1770168016 -0.0901936109 0.0000000000 0.1837780219 -0.9829677709
0.0843764274 -0.1768302332 -0.0901587242 0.0000000000 0.1837782242 -0.9829677331
-0.0010497657 -0.1720416461 -0.0892632988 0.0000000000 0.1837780219 -0.9829677709
0.0002380664 -0.1684346584 -0.0885888225 0.0000000000 0.1837782242 -0.9829677331
0.0178384378 -0.1714197517 -0.0891470098 0.0000000000 0.1837782738 -0.9829677238
-0.0233721880 -0.1668177329 -0.0882864711 0.0000000000 0.1837779212 -0.9829677898
-0.0233721880 -0.1628376085 -0.0875422214 0.0000000000 0.1837779212 -0.9829677898
-0.0139280862 -0.1655117545 -0.0880422642 0.0000000000 0.1837781278 -0.9829677511
-0.0010497657 -0.1608475463 -0.0871700966 0.0000000000 0.1837780219 -0.9829677709
0.0178384378 -0.1642057762 -0.0877980572 0.0000000000 0.1837782738 -0.9829677238
0.0002380664 -0.1646411023 -0.0878794595 0.0000000000 0.1837782242 -0.9829677331
0.0332924225 -0.1608475463 -0.0871700966 0.0000000000 0.1837780219 -0.9829677709
0.0581905089 -0.1646411023 -0.0878794595 0.0000000000 0.1837782242 -0.9829677331
0.0375851960 -0.1642057762 -0.0877980572 0.0000000000 0.1837782738 -0.9829677238
0.0693517200 -0.1628376085 -0.0875422214 0.0000000000 0.1837779212 -0.9829677898
0.0968254706 -0.1668177329 -0.0882864711 0.0000000000 0.1837779212 -0.9829677898
0.0783665444 -0.1655117545 -0.0880422642 0.0000000000 0.1837781278 -0.9829677511
0.1105623458 -0.1720416461 -0.0892632988 0.0000000000 0.1837780219 -0.9829677709
0.0873813688 -0.1714197517 -0.0891470098 0.0000000000 0.1837782738 -0.9829677238
0.0843764274 -0.1684346584 -0.0885888225 0.0000000000 0.1837782242 -0.9829677331
0.0397315828 -0.1711088044 -0.0890888653 0.0000000000 0.1837783159 -0.9829677160
0.0397315828 -0.1676883851 -0.0884492757 0.0000000000 0.1837783159 -0.9829677160
0.0633418371 -0.1711088044 -0.0890888653 0.0000000000 0.1837783159 -0.9829677160
0.0349408752 0.3545135027 0.0117611560 -0.1059807347 -0.9943681833 0.0000000000
0.0390873596 0.3538665659 0.0139337537 -0.1194375402 -0.9928417165 0.0000000000
0.0349408752 0.3545135027 0.0183824060 -0.1059807347 -0.9943681833 0.0000000000
0.0447416565 0.3529843793 0.0030707655 -0.1373640198 -0.9905206338 0.0000000000
0.0530346253 0.3516905056 0.0041053358 -0.1636690751 -0.9865152983 0.0000000000
0.0453070862 0.3528961606 0.0090712732 -0.1392458635 -0.9902578399 0.0000000000
0.0530346253 0.3516905056 0.0161063513 -0.1636690751 -0.9865152983 0.0000000000
0.0447416565 0.3529843793 0.0216930310 -0.1373640198 -0.9905206338 0.0000000000
0.0453070862 0.3528961606 0.0153821521 -0.1392458635 -0.9902578399 0.0000000000
0.0598197816 0.3506318817 -0.0052057970 -0.1852140861 -0.9826981949 0.0000000000
0.0707514223 0.3489263210 -0.0048954259 -0.2192125543 -0.9756771269 0.0000000000
0.0617045473 0.3503378195 -0.0006536876 -0.1909138282 -0.9816068002 0.0000000000
0.0756518130 0.3481617593 -0.0105855626 -0.2350407696 -0.9719855126 0.0000000000
0.0877143131 0.3462797613 -0.0105855626 -0.2722781529 -0.9622185861 0.0000000000
0.0796098208 0.3475442287 -0.0083095079 -0.2468294394 -0.9690589393 0.0000000000
0.0937455631 0.3453387623 -0.0052057970 -0.2902738756 -0.9569436123 0.0000000000
0.0835678287 0.3469266981 -0.0006536876 -0.2585859286 -0.9659882595 0.0000000000
0.0822484927 0.3471325416 -0.0048954259 -0.2546874626 -0.9670234208 0.0000000000
0.0937455631 0.3453387623 0.0030707655 -0.2902738756 -0.9569436123 0.0000000000
0.0822484927 0.3471325416 0.0090712732 -0.2546874626 -0.9670234208 0.0000000000
0.0835678287 0.3469266981 0.0041053358 -0.2585859286 -0.9659882595 0.0000000000
0.0877143131 0.3462797613 0.0117611560 -0.2722781529 -0.9622185861 0.0000000000
0.0756518130 0.3481617593 0.0183824060 -0.2350407696 -0.9719855126 0.0000000000
0.0796098208 0.3475442287 0.0139337537 -0.2468294394 -0.9690589393 0.0000000000
0.0598197816 0.3506318817 0.0216930310 -0.1852140861 -0.9826981949 0.0000000000
0.0617045473 0.3503378195 0.0161063513 -0.1909138282 -0.9816068002 0.0000000000
0.0707514223 0.3489263210 0.0153821521 -0.2192125543 -0.9756771269 0.0000000000
0.0626469301 0.3501907884 0.0046226209 -0.1938193240 -0.9810372417 0.0000000000
0.0730131411 0.3485734464 0.0046226209 -0.2260568748 -0.9741141049 0.0000000000
0.0626469301 0.3501907884 0.0103127576 -0.1938193240 -0.9810372417 0.0000000000
0.0869781410 0.3428501915 0.0241759997 0.0000000000 0.0000000000 -1.0000000000
0.0790024789 0.3436515110 0.0241759997 0.0000000000 0.0000000000 -1.0000000000
0.0753082660 0.3446709421 0.0241759997 0.0000000000 0.0000000000 -1.0000000000
0.0924940706 0.3409423681 0.0241759997 0.0000000000 0.0000000000 -1.0000000000
0.0823776838 0.3416346319 0.0241759997 0.0000000000 0.0000000000 -1.0000000000
0.0813528167 0.3426202259 0.0241759997 0.0000000000 0.0000000000 -1.0000000000
0.0612260354 0.3449347422 0.0241759997 0.0000000000 0.0000000000 -1.0000000000
0.0596725472 0.3460632290 0.0241759997 0.0000000000 0.0000000000 -1.0000000000
0.0702299671 0.3443556288 0.0241759997 0.0000000000 0.0000000000 -1.0000000000
0.0920032892 0.3394078326 0.0241759997 0.0000000000 0.0000000000 -1.0000000000
0.0805246231 0.3400306972 0.0241759997 0.0000000000 0.0000000000 -1.0000000000
0.0820954845 0.3407522739 0.0241759997 0.0000000000 0.0000000000 -1.0000000000
0.0856530313 0.3387069455 0.0241759997 0.0000000000 0.0000000000 -1.0000000000
0.0735905312 0.3393000676 0.0241759997 0.0000000000 0.0000000000 -1.0000000000
0.0776835039 0.3395274467 0.0241759997 0.0000000000 0.0000000000 -1.0000000000
0.0580775077 0.3410759885 0.0241759997 0.0000000000 0.0000000000 -1.0000000000
0.0602322031 0.3418273077 0.0241759997 0.0000000000 0.0000000000 -1.0000000000
0.0690275527 0.3405960167 0.0241759997 0.0000000000 0.0000000000 -1.0000000000
0.0434901640 0.3433519267 0.0241759997 0.0000000000 0.0000000000 -1.0000000000
0.0444114102 0.3444366623 0.0241759997 0.0000000000 0.0000000000 -1.0000000000
0.0518444805 0.3431359722 0.0241759997 0.0000000000 0.0000000000 -1.0000000000
0.0342047031 0.3454451007 0.0241759997 0.0000000000 0.0000000000 -1.0000000000
0.0345973282 0.3466727291 0.0241759997 0.0000000000 0.0000000000 -1.0000000000
0.0384800176 0.3456440305 0.0241759997 0.0000000000 0.0000000000 -1.0000000000
0.0445944221 0.3468046316 0.0241759997 0.0000000000 0.0000000000 -1.0000000000
0.0525561135 0.3453610487 0.0241759997 0.0000000000 0.0000000000 -1.0000000000
0.0447856310 0.3456067457 0.0241759997 0.0000000000 0.0000000000 -1.0000000000
0.0718536701 0.3422495222 0.0241759997 0.0000000000 0.0000000000 -1.0000000000
0.0614874591 0.3427592365 0.0241759997 0.0000000000 0.0000000000 -1.0000000000
0.0618248713 0.3438142297 0.0241759997 0.0000000000 0.0000000000 -1.0000000000
0.0338611562 0.3443709258 -0.0163791563 0.1059767176 0.9943686114 0.0000000000
0.0378726757 0.3437450428 -0.0185517539 0.1194284575 0.9928428091 0.0000000000
0.0338611562 0.3443709258 -0.0230004062 0.1059767176 0.9943686114 0.0000000000
0.0433429296 0.3428915660 -0.0076887657 0.1373611658 0.9905210296 0.0000000000
0.0513659686 0.3416398000 -0.0087233360 0.1636727700 0.9865146853 0.0000000000
0.0438899550 0.3428062183 -0.0136892735 0.1392407261 0.9902585623 0.0000000000
0.0513659686 0.3416398000 -0.0207243515 0.1636727700 0.9865146853 0.0000000000
0.0433429296 0.3428915660 -0.0263110312 0.1373611658 0.9905210296 0.0000000000
0.0438899550 0.3428062183 -0.0200001523 0.1392407261 0.9902585623 0.0000000000
0.0579302733 0.3406156278 0.0005877967 0.1852193532 0.9826972022 0.0000000000
0.0685060975 0.3389655726 0.0002774256 0.2192347806 0.9756721329 0.0000000000
0.0597536913 0.3403311356 -0.0039643126 0.1909280278 0.9816040384 0.0000000000
0.0732469842 0.3382258927 0.0059675623 0.2350474210 0.9719839041 0.0000000000
0.0849168592 0.3364051422 0.0059675623 0.2722877594 0.9622158677 0.0000000000
0.0770761619 0.3376284590 0.0036915076 0.2468532756 0.9690528677 0.0000000000
0.0907517967 0.3354947669 0.0005877967 0.2902963228 0.9569368030 0.0000000000
0.0809053397 0.3370310252 -0.0039643126 0.2586256277 0.9659776316 0.0000000000
0.0796289471 0.3372301698 0.0002774256 0.2547214917 0.9670144578 0.0000000000
0.0907517967 0.3354947669 -0.0076887657 0.2902963228 0.9569368030 0.0000000000
0.0796289471 0.3372301698 -0.0136892735 0.2547214917 0.9670144578 0.0000000000
0.0809053397 0.3370310252 -0.0087233360 0.2586256277 0.9659776316 0.0000000000
0.0849168592 0.3364051422 -0.0163791563 0.2722877594 0.9622158677 0.0000000000
0.0732469842 0.3382258927 -0.0230004062 0.2350474210 0.9719839041 0.0000000000
0.0770761619 0.3376284590 -0.0185517539 0.2468532756 0.9690528677 0.0000000000
0.0579302733 0.3406156278 -0.0263110312 0.1852193532 0.9826972022 0.0000000000
0.0597536913 0.3403311356 -0.0207243515 0.1909280278 0.9816040384 0.0000000000
0.0685060975 0.3389655726 -0.0200001523 0.2192347806 0.9756721329 0.0000000000
0.0606654002 0.3401888894 -0.0092406212 0.1938360797 0.9810339312 0.0000000000
0.0706941990 0.3386241819 -0.0092406212 0.2260870477 0.9741071024 0.0000000000
0.0606654002 0.3401888894 -0.0149307578 0.1938360797 0.9810339312 0.0000000000
0.0856530313 0.3387069455 -0.0287939999 0.0000000000 0.0000000000 1.0000000000
0.0776835039 0.3395274467 -0.0287939999 0.0000000000 0.0000000000 1.0000000000
0.0735905312 0.3393000676 -0.0287939999 0.0000000000 0.0000000000 1.0000000000
0.0920032892 0.3394078326 -0.0287939999 0.0000000000 0.0000000000 1.0000000000
0.0820954845 0.3407522739 -0.0287939999 0.0000000000 0.0000000000 1.0000000000
0.0805246231 0.3400306972 -0.0287939999 0.0000000000 0.0000000000 1.0000000000
0.0602322031 0.3418273077 -0.0287939999 0.0000000000 0.0000000000 1.0000000000
0.0580775077 0.3410759885 -0.0287939999 0.0000000000 0.0000000000 1.0000000000
0.0690275527 0.3405960167 -0.0287939999 0.0000000000 0.0000000000 1.0000000000
0.0924940706 0.3409423681 -0.0287939999 0.0000000000 0.0000000000 1.0000000000
0.0813528167 0.3426202259 -0.0287939999 0.0000000000 0.0000000000 1.0000000000
0.0823776838 0.3416346319 -0.0287939999 0.0000000000 0.0000000000 1.0000000000
0.0869781410 0.3428501915 -0.0287939999 0.0000000000 0.0000000000 1.0000000000
0.0753082660 0.3446709421 -0.0287939999 0.0000000000 0.0000000000 1.0000000000
0.0790024789 0.3436515110 -0.0287939999 0.0000000000 0.0000000000 1.0000000000
0.0596725472 0.3460632290 -0.0287939999 0.0000000000 0.0000000000 1.0000000000
0.0612260354 0.3449347422 -0.0287939999 0.0000000000 0.0000000000 1.0000000000
0.0702299671 0.3443556288 -0.0287939999 0.0000000000 0.0000000000 1.0000000000
0.0445944221 0.3468046316 -0.0287939999 0.0000000000 0.0000000000 1.0000000000
0.0447856310 0.3456067457 -0.0287939999 0.0000000000 0.0000000000 1.0000000000
0.0525561135 0.3453610487 -0.0287939999 0.0000000000 0.0000000000 1.0000000000
0.0345973282 0.3466727291 -0.0287939999 0.0000000000 0.0000000000 1.0000000000
0.0342047031 0.3454451007 -0.0287939999 0.0000000000 0.0000000000 1.0000000000
0.0384800176 0.3456440305 -0.0287939999 0.0000000000 0.0000000000 1.0000000000
0.0434901640 0.3433519267 -0.0287939999 0.0000000000 0.0000000000 1.0000000000
0.0518444805 0.3431359722 -0.0287939999 0.0000000000 0.0000000000 1.0000000000
0.0444114102 0.3444366623 -0.0287939999 0.0000000000 0.0000000000 1.0000000000
0.0718536701 0.3422495222 -0.0287939999 0.0000000000 0.0000000000 1.0000000000
0.0618248713 0.3438142297 -0.0287939999 0.0000000000 0.0000000000 1.0000000000
0.0614874591 0.3427592365 -0.0287939999 0.0000000000 0.0000000000 1.0000000000
-0.0474117197 -0.1703003417 -0.0889376896 0.0000000000 0.1837779212 -0.9829677898
-0.0564265441 -0.1716685094 -0.0891935254 0.0000000000 0.1837781278 -0.9829677511
-0.0748854702 -0.1703003417 -0.0889376896 0.0000000000 0.1837779212 -0.9829677898
-0.0113524221 -0.1735341927 -0.0895423924 0.0000000000 0.1837780219 -0.9829677709
-0.0156451956 -0.1762705282 -0.0900540641 0.0000000000 0.1837782738 -0.9829677238
-0.0362505085 -0.1737207611 -0.0895772791 0.0000000000 0.1837782242 -0.9829677331
-0.0654413685 -0.1762705282 -0.0900540641 0.0000000000 0.1837782738 -0.9829677238
-0.0886223455 -0.1735341927 -0.0895423924 0.0000000000 0.1837780219 -0.9829677709
-0.0624364270 -0.1737207611 -0.0895772791 0.0000000000 0.1837782242 -0.9829677331
0.0229897660 -0.1785093482 -0.0904727045 0.0000000000 0.1837780219 -0.9829677709
0.0217019340 -0.1821163359 -0.0911471808 0.0000000000 0.1837782242 -0.9829677331
0.0041015625 -0.1791312426 -0.0905889935 0.0000000000 0.1837782738 -0.9829677238
0.0453121883 -0.1837332614 -0.0914495322 0.0000000000 0.1837779212 -0.9829677898
0.0453121883 -0.1877133858 -0.0921937819 0.0000000000 0.1837779212 -0.9829677898
0.0358680866 -0.1850392397 -0.0916937391 0.0000000000 0.1837781278 -0.9829677511
0.0229897660 -0.1897034480 -0.0925659067 0.0000000000 0.1837780219 -0.9829677709
0.0041015625 -0.1863452180 -0.0919379460 0.0000000000 0.1837782738 -0.9829677238
0.0217019340 -0.1859098919 -0.0918565437 0.0000000000 0.1837782242 -0.9829677331
-0.0113524221 -0.1897034480 -0.0925659067 0.0000000000 0.1837780219 -0.9829677709
-0.0362505085 -0.1859098919 -0.0918565437 0.0000000000 0.1837782242 -0.9829677331
-0.0156451956 -0.1863452180 -0.0919379460 0.0000000000 0.1837782738 -0.9829677238
-0.0474117197 -0.1877133858 -0.0921937819 0.0000000000 0.1837779212 -0.9829677898
-0.0748854702 -0.1837332614 -0.0914495322 0.0000000000 0.1837779212 -0.9829677898
-0.0564265441 -0.1850392397 -0.0916937391 0.0000000000 0.1837781278 -0.9829677511
-0.0886223455 -0.1785093482 -0.0904727045 0.0000000000 0.1837780219 -0.9829677709
-0.0654413685 -0.1791312426 -0.0905889935 0.0000000000 0.1837782738 -0.9829677238
-0.0624364270 -0.1821163359 -0.0911471808 0.0000000000 0.1837782242 -0.9829677331
-0.0177915824 -0.1794421898 -0.0906471380 0.0000000000 0.1837783159 -0.9829677160
-0.0177915824 -0.1828626092 -0.0912867276 0.0000000000 0.1837783159 -0.9829677160
-0.0414018368 -0.1794421898 -0.0906471380 0.0000000000 0.1837783159 -0.9829677160
0.0650971254 0.3498085076 -0.0163791563 -0.2019685421 -0.9793920094 0.0000000000
0.0609506410 0.3504554444 -0.0185517539 -0.1886863106 -0.9820374108 0.0000000000
0.0650971254 0.3498085076 -0.0230004062 -0.2019685421 -0.9793920094 0.0000000000
0.0552963441 0.3513376310 -0.0076887657 -0.1709047958 -0.9852875473 0.0000000000
0.0470033753 0.3526315046 -0.0087233360 -0.1446298319 -0.9894858320 0.0000000000
0.0547309144 0.3514258497 -0.0136892735 -0.1690323283 -0.9856105073 0.0000000000
0.0470033753 0.3526315046 -0.0207243515 -0.1446298319 -0.9894858320 0.0000000000
0.0552963441 0.3513376310 -0.0263110312 -0.1709047958 -0.9852875473 0.0000000000
0.0547309144 0.3514258497 -0.0200001523 -0.1690323283 -0.9856105073 0.0000000000
0.0402182190 0.3536901285 0.0005877967 -0.1229460356 -0.9924133576 0.0000000000
0.0292865783 0.3553956893 0.0002774256 -0.0884246185 -0.9960828715 0.0000000000
0.0383334533 0.3539841907 -0.0039643126 -0.1171847082 -0.9931101370 0.0000000000
0.0243861876 0.3561602510 0.0059675623 -0.0722241275 -0.9973884276 0.0000000000
0.0123236875 0.3580422490 0.0059675623 -0.0337812532 -0.9994292506 0.0000000000
0.0204281798 0.3567777816 0.0036915076 -0.0601042146 -0.9981921075 0.0000000000
0.0062924375 0.3589832480 0.0005877967 -0.0150338995 -0.9998869845 0.0000000000
0.0164701719 0.3573953122 -0.0039643126 -0.0479710554 -0.9988487262 0.0000000000
0.0177895079 0.3571894686 0.0002774256 -0.0519995803 -0.9986471067 0.0000000000
0.0062924375 0.3589832480 -0.0076887657 -0.0150338995 -0.9998869845 0.0000000000
0.0177895079 0.3571894686 -0.0136892735 -0.0519995803 -0.9986471067 0.0000000000
0.0164701719 0.3573953122 -0.0087233360 -0.0479710554 -0.9988487262 0.0000000000
0.0123236875 0.3580422490 -0.0163791563 -0.0337812532 -0.9994292506 0.0000000000
0.0243861876 0.3561602510 -0.0230004062 -0.0722241275 -0.9973884276 0.0000000000
0.0204281798 0.3567777816 -0.0185517539 -0.0601042146 -0.9981921075 0.0000000000
0.0402182190 0.3536901285 -0.0263110312 -0.1229460356 -0.9924133576 0.0000000000
0.0383334533 0.3539841907 -0.0207243515 -0.1171847082 -0.9931101370 0.0000000000
0.0292865783 0.3553956893 -0.0200001523 -0.0884246185 -0.9960828715 0.0000000000
0.0373910705 0.3541312218 -0.0092406212 -0.1142437991 -0.9934527439 0.0000000000
0.0270248595 0.3557485639 -0.0092406212 -0.0814294470 -0.9966791084 0.0000000000
0.0373910705 0.3541312218 -0.0149307578 -0.1142437991 -0.9934527439 0.0000000000
0.0650971254 0.3473918652 0.0241759997 0.0000000000 0.0000000000 -1.0000000000
0.0609506410 0.3484617145 0.0241759997 0.0000000000 0.0000000000 -1.0000000000
0.0650971254 0.3486807412 0.0241759997 0.0000000000 0.0000000000 -1.0000000000
0.0552963441 0.3472293389 0.0241759997 0.0000000000 0.0000000000 -1.0000000000
0.0470033753 0.3487245995 0.0241759997 0.0000000000 0.0000000000 -1.0000000000
0.0547309144 0.3484856014 0.0241759997 0.0000000000 0.0000000000 -1.0000000000
0.0470033753 0.3510606871 0.0241759997 0.0000000000 0.0000000000 -1.0000000000
0.0552963441 0.3508543025 0.0241759997 0.0000000000 0.0000000000 -1.0000000000
0.0547309144 0.3497140613 0.0241759997 0.0000000000 0.0000000000 -1.0000000000
0.0402182190 0.3479707416 0.0241759997 0.0000000000 0.0000000000 -1.0000000000
0.0292865783 0.3497367183 0.0241759997 0.0000000000 0.0000000000 -1.0000000000
0.0383334533 0.3491509060 0.0241759997 0.0000000000 0.0000000000 -1.0000000000
0.0243861876 0.3493936523 0.0241759997 0.0000000000 0.0000000000 -1.0000000000
0.0123236875 0.3512756503 0.0241759997 0.0000000000 0.0000000000 -1.0000000000
0.0204281798 0.3504542340 0.0241759997 0.0000000000 0.0000000000 -1.0000000000
0.0062924375 0.3532638610 0.0241759997 0.0000000000 0.0000000000 -1.0000000000
0.0164701719 0.3525620274 0.0241759997 0.0000000000 0.0000000000 -1.0000000000
0.0177895079 0.3515304977 0.0241759997 0.0000000000 0.0000000000 -1.0000000000
0.0062924375 0.3548749560 0.0241759997 0.0000000000 0.0000000000 -1.0000000000
0.0177895079 0.3542492204 0.0241759997 0.0000000000 0.0000000000 -1.0000000000
0.0164701719 0.3534884070 0.0241759997 0.0000000000 0.0000000000 -1.0000000000
0.0123236875 0.3556256066 0.0241759997 0.0000000000 0.0000000000 -1.0000000000
0.0243861876 0.3550324845 0.0241759997 0.0000000000 0.0000000000 -1.0000000000
0.0204281798 0.3547840516 0.0241759997 0.0000000000 0.0000000000 -1.0000000000
0.0402182190 0.3532068001 0.0241759997 0.0000000000 0.0000000000 -1.0000000000
0.0383334533 0.3524133732 0.0241759997 0.0000000000 0.0000000000 -1.0000000000
0.0292865783 0.3536839009 0.0241759997 0.0000000000 0.0000000000 -1.0000000000
0.0373910705 0.3503250101 0.0241759997 0.0000000000 0.0000000000 -1.0000000000
0.0270248595 0.3519423521 0.0241759997 0.0000000000 0.0000000000 -1.0000000000
0.0373910705 0.3514326378 0.0241759997 0.0000000000 0.0000000000 -1.0000000000
0.0630358436 0.3398190495 0.0117611560 0.2019725030 0.9793911925 0.0000000000
0.0590243241 0.3404449325 0.0139337537 0.1886953079 0.9820356820 0.0000000000
0.0630358436 0.3398190495 0.0183824060 0.2019725030 0.9793911925 0.0000000000
0.0535540702 0.3412984093 0.0030707655 0.1709076434 0.9852870533 0.0000000000
0.0455310311 0.3425501753 0.0041053358 0.1446261458 0.9894863708 0.0000000000
0.0530070448 0.3413837570 0.0090712732 0.1690374593 0.9856096273 0.0000000000
0.0455310311 0.3425501753 0.0161063513 0.1446261458 0.9894863708 0.0000000000
0.0535540702 0.3412984093 0.0216930310 0.1709076434 0.9852870533 0.0000000000
0.0530070448 0.3413837570 0.0153821521 0.1690374593 0.9856096273 0.0000000000
0.0389667265 0.3435743474 -0.0052057970 0.1229407253 0.9924140155 0.0000000000
0.0283909023 0.3452244026 -0.0048954259 0.0884019452 0.9960848840 0.0000000000
0.0371433085 0.3438588397 -0.0006536876 0.1171703622 0.9931118297 0.0000000000
0.0236500155 0.3459640825 -0.0105855626 0.0722173065 0.9973889215 0.0000000000
0.0119801406 0.3477848331 -0.0105855626 0.0337712795 0.9994295877 0.0000000000
0.0198208378 0.3465615163 -0.0083095079 0.0600796752 0.9981935847 0.0000000000
0.0061452031 0.3486952083 -0.0052057970 0.0150104536 0.9998873368 0.0000000000
0.0159916601 0.3471589501 -0.0006536876 0.0479300256 0.9988506959 0.0000000000
0.0172680527 0.3469598055 -0.0048954259 0.0519644559 0.9986489350 0.0000000000
0.0061452031 0.3486952083 0.0030707655 0.0150104536 0.9998873368 0.0000000000
0.0172680527 0.3469598055 0.0090712732 0.0519644559 0.9986489350 0.0000000000
0.0159916601 0.3471589501 0.0041053358 0.0479300256 0.9988506959 0.0000000000
0.0119801406 0.3477848331 0.0117611560 0.0337712795 0.9994295877 0.0000000000
0.0236500155 0.3459640825 0.0183824060 0.0722173065 0.9973889215 0.0000000000
0.0198208378 0.3465615163 0.0139337537 0.0600796752 0.9981935847 0.0000000000
0.0389667265 0.3435743474 0.0216930310 0.1229407253 0.9924140155 0.0000000000
0.0371433085 0.3438588397 0.0161063513 0.1171703622 0.9931118297 0.0000000000
0.0283909023 0.3452244026 0.0153821521 0.0884019452 0.9960848840 0.0000000000
0.0362315995 0.3440010858 0.0046226209 0.1142268533 0.9934546925 0.0000000000
0.0262028007 0.3455657933 0.0046226209 0.0813985970 0.9966816284 0.0000000000
0.0362315995 0.3440010858 0.0103127576 0.1142268533 0.9934546925 0.0000000000
0.0243861876 0.3493936523 -0.0287939999 0.0000000000 0.0000000000 1.0000000000
0.0204281798 0.3504542340 -0.0287939999 0.0000000000 0.0000000000 1.0000000000
0.0123236875 0.3512756503 -0.0287939999 0.0000000000 0.0000000000 1.0000000000
0.0402182190 0.3479707416 -0.0287939999 0.0000000000 0.0000000000 1.0000000000
0.0383334533 0.3491509060 -0.0287939999 0.0000000000 0.0000000000 1.0000000000
0.0292865783 0.3497367183 -0.0287939999 0.0000000000 0.0000000000 1.0000000000
0.0164701719 0.3525620274 -0.0287939999 0.0000000000 0.0000000000 1.0000000000
0.0062924375 0.3532638610 -0.0287939999 0.0000000000 0.0000000000 1.0000000000
0.0177895079 0.3515304977 -0.0287939999 0.0000000000 0.0000000000 1.0000000000
0.0552963441 0.3472293389 -0.0287939999 0.0000000000 0.0000000000 1.0000000000
0.0547309144 0.3484856014 -0.0287939999 0.0000000000 0.0000000000 1.0000000000
0.0470033753 0.3487245995 -0.0287939999 0.0000000000 0.0000000000 1.0000000000
0.0650971254 0.3473918652 -0.0287939999 0.0000000000 0.0000000000 1.0000000000
0.0650971254 0.3486807412 -0.0287939999 0.0000000000 0.0000000000 1.0000000000
0.0609506410 0.3484617145 -0.0287939999 0.0000000000 0.0000000000 1.0000000000
0.0552963441 0.3508543025 -0.0287939999 0.0000000000 0.0000000000 1.0000000000
0.0470033753 0.3510606871 -0.0287939999 0.0000000000 0.0000000000 1.0000000000
0.0547309144 0.3497140613 -0.0287939999 0.0000000000 0.0000000000 1.0000000000
0.0402182190 0.3532068001 -0.0287939999 0.0000000000 0.0000000000 1.0000000000
0.0292865783 0.3536839009 -0.0287939999 0.0000000000 0.0000000000 1.0000000000
0.0383334533 0.3524133732 -0.0287939999 0.0000000000 0.0000000000 1.0000000000
0.0243861876 0.3550324845 -0.0287939999 0.0000000000 0.0000000000 1.0000000000
0.0123236875 0.3556256066 -0.0287939999 0.0000000000 0.0000000000 1.0000000000
0.0204281798 0.3547840516 -0.0287939999 0.0000000000 0.0000000000 1.0000000000
0.0062924375 0.3548749560 -0.0287939999 0.0000000000 0.0000000000 1.0000000000
0.0164701719 0.3534884070 -0.0287939999 0.0000000000 0.0000000000 1.0000000000
0.0177895079 0.3542492204 -0.0287939999 0.0000000000 0.0000000000 1.0000000000
0.0373910705 0.3503250101 -0.0287939999 0.0000000000 0.0000000000 1.0000000000
0.0373910705 0.3514326378 -0.0287939999 0.0000000000 0.0000000000 1.0000000000
0.0270248595 0.3519423521 -0.0287939999 0.0000000000 0.0000000000 1.0000000000
-0.0615597822 0.3498085076 0.0117611560 0.2019685369 -0.9793920104 0.0000000000
-0.0574132548 0.3504554444 0.0139337537 0.1886862954 -0.9820374137 0.0000000000
-0.0615597822 0.3498085076 0.0183824060 0.2019685369 -0.9793920104 0.0000000000
-0.0517588992 0.3513376310 0.0030707655 0.1709047868 -0.9852875488 0.0000000000
-0.0434658444 0.3526315046 0.0041053358 0.1446298144 -0.9894858346 0.0000000000
-0.0511934637 0.3514258497 0.0090712732 0.1690323102 -0.9856105103 0.0000000000
-0.0434658444 0.3526315046 0.0161063513 0.1446298144 -0.9894858346 0.0000000000
-0.0517588992 0.3513376310 0.0216930310 0.1709047868 -0.9852875488 0.0000000000
-0.0511934637 0.3514258497 0.0153821521 0.1690323102 -0.9856105103 0.0000000000
-0.0366806178 0.3536901285 -0.0052057970 0.1229460291 -0.9924133584 0.0000000000
-0.0257488637 0.3553956893 -0.0048954259 0.0884246089 -0.9960828723 0.0000000000
-0.0347958326 0.3539841907 -0.0006536876 0.1171846940 -0.9931101387 0.0000000000
-0.0208484222 0.3561602510 -0.0105855626 0.0722241256 -0.9973884277 0.0000000000
-0.0087857971 0.3580422490 -0.0105855626 0.0337812523 -0.9994292506 0.0000000000
-0.0168903733 0.3567777816 -0.0083095079 0.0601042097 -0.9981921077 0.0000000000
-0.0027544845 0.3589832480 -0.0052057970 0.0150338987 -0.9998869846 0.0000000000
-0.0129323245 0.3573953122 -0.0006536876 0.0479710496 -0.9988487265 0.0000000000
-0.0142516741 0.3571894686 -0.0048954259 0.0519995747 -0.9986471070 0.0000000000
-0.0027544845 0.3589832480 0.0030707655 0.0150338987 -0.9998869846 0.0000000000
-0.0142516741 0.3571894686 0.0090712732 0.0519995747 -0.9986471070 0.0000000000
-0.0129323245 0.3573953122 0.0041053358 0.0479710496 -0.9988487265 0.0000000000
-0.0087857971 0.3580422490 0.0117611560 0.0337812523 -0.9994292506 0.0000000000
-0.0208484222 0.3561602510 0.0183824060 0.0722241256 -0.9973884277 0.0000000000
-0.0168903733 0.3567777816 0.0139337537 0.0601042097 -0.9981921077 0.0000000000
-0.0366806178 0.3536901285 0.0216930310 0.1229460291 -0.9924133584 0.0000000000
-0.0347958326 0.3539841907 0.0161063513 0.1171846940 -0.9931101387 0.0000000000
-0.0257488637 0.3553956893 0.0153821521 0.0884246089 -0.9960828723 0.0000000000
-0.0338534400 0.3541312218 0.0046226209 0.1142437840 -0.9934527456 0.0000000000
-0.0234871215 0.3557485639 0.0046226209 0.0814294362 -0.9966791093 0.0000000000
-0.0338534400 0.3541312218 0.0103127576 0.1142437840 -0.9934527456 0.0000000000
-0.0208484222 0.3493936523 0.0241759997 0.0000000000 0.0000000000 -1.0000000000
-0.0168903733 0.3504542340 0.0241759997 0.0000000000 0.0000000000 -1.0000000000
-0.0087857971 0.3512756503 0.0241759997 0.0000000000 0.0000000000 -1.0000000000
-0.0366806178 0.3479707416 0.0241759997 0.0000000000 0.0000000000 -1.0000000000
-0.0347958326 0.3491509060 0.0241759997 0.0000000000 0.0000000000 -1.0000000000
-0.0257488637 0.3497367183 0.0241759997 0.0000000000 0.0000000000 -1.0000000000
-0.0129323245 0.3525620274 0.0241759997 0.0000000000 0.0000000000 -1.0000000000
-0.0027544845 0.3532638610 0.0241759997 0.0000000000 0.0000000000 -1.0000000000
-0.0142516741 0.3515304977 0.0241759997 0.0000000000 0.0000000000 -1.0000000000
-0.0517588992 0.3472293389 0.0241759997 0.0000000000 0.0000000000 -1.0000000000
-0.0511934637 0.3484856014 0.0241759997 0.0000000000 0.0000000000 -1.0000000000
-0.0434658444 0.3487245995 0.0241759997 0.0000000000 0.0000000000 -1.0000000000
-0.0615597822 0.3473918652 0.0241759997 0.0000000000 0.0000000000 -1.0000000000
-0.0615597822 0.3486807412 0.0241759997 0.0000000000 0.0000000000 -1.0000000000
-0.0574132548 0.3484617145 0.0241759997 0.0000000000 0.0000000000 -1.0000000000
-0.0517588992 0.3508543025 0.0241759997 0.0000000000 0.0000000000 -1.0000000000
-0.0434658444 0.3510606871 0.0241759997 0.0000000000 0.0000000000 -1.0000000000
-0.0511934637 0.3497140613 0.0241759997 0.0000000000 0.0000000000 -1.0000000000
-0.0366806178 0.3532068001 0.0241759997 0.0000000000 0.0000000000 -1.0000000000
-0.0257488637 0.3536839009 0.0241759997 0.0000000000 0.0000000000 -1.0000000000
-0.0347958326 0.3524133732 0.0241759997 0.0000000000 0.0000000000 -1.0000000000
-0.0208484222 0.3550324845 0.0241759997 0.0000000000 0.0000000000 -1.0000000000
-0.0087857971 0.3556256066 0.0241759997 0.0000000000 0.0000000000 -1.0000000000
-0.0168903733 0.3547840516 0.0241759997 0.0000000000 0.0000000000 -1.0000000000
-0.0027544845 0.3548749560 0.0241759997 0.0000000000 0.0000000000 -1.0000000000
-0.0129323245 0.3534884070 0.0241759997 0.0000000000 0.0000000000 -1.0000000000
-0.0142516741 0.3542492204 0.0241759997 0.0000000000 0.0000000000 -1.0000000000
-0.0338534400 0.3503250101 0.0241759997 0.0000000000 0.0000000000 -1.0000000000
-0.0338534400 0.3514326378 0.0241759997 0.0000000000 0.0000000000 -1.0000000000
-0.0234871215 0.3519423521 0.0241759997 0.0000000000 0.0000000000 -1.0000000000
-0.0594978452 0.3398190495 -0.0163791563 -0.2019725030 0.9793911925 0.0000000000
-0.0554863256 0.3404449325 -0.0185517539 -0.1886953079 0.9820356820 0.0000000000
-0.0594978452 0.3398190495 -0.0230004062 -0.2019725030 0.9793911925 0.0000000000
-0.0500160715 0.3412984093 -0.0076887657 -0.1709076434 0.9852870533 0.0000000000
-0.0419930323 0.3425501753 -0.0087233360 -0.1446261458 0.9894863708 0.0000000000
-0.0494690461 0.3413837570 -0.0136892735 -0.1690374592 0.9856096273 0.0000000000
-0.0419930323 0.3425501753 -0.0207243515 -0.1446261458 0.9894863708 0.0000000000
-0.0500160715 0.3412984093 -0.0263110312 -0.1709076434 0.9852870533 0.0000000000
-0.0494690461 0.3413837570 -0.0200001523 -0.1690374592 0.9856096273 0.0000000000
-0.0354287275 0.3435743474 0.0005877967 -0.1229407252 0.9924140155 0.0000000000
-0.0248529030 0.3452244026 0.0002774256 -0.0884019451 0.9960848840 0.0000000000
-0.0336053094 0.3438588397 -0.0039643126 -0.1171703622 0.9931118297 0.0000000000
-0.0201120162 0.3459640825 0.0059675623 -0.0722173065 0.9973889215 0.0000000000
-0.0084421409 0.3477848331 0.0059675623 -0.0337712795 0.9994295877 0.0000000000
-0.0162828383 0.3465615163 0.0036915076 -0.0600796752 0.9981935847 0.0000000000
-0.0026072033 0.3486952083 0.0005877967 -0.0150104536 0.9998873368 0.0000000000
-0.0124536605 0.3471589501 -0.0039643126 -0.0479300256 0.9988506959 0.0000000000
-0.0137300531 0.3469598055 0.0002774256 -0.0519644559 0.9986489350 0.0000000000
-0.0026072033 0.3486952083 -0.0076887657 -0.0150104536 0.9998873368 0.0000000000
-0.0137300531 0.3469598055 -0.0136892735 -0.0519644559 0.9986489350 0.0000000000
-0.0124536605 0.3471589501 -0.0087233360 -0.0479300256 0.9988506959 0.0000000000
-0.0084421409 0.3477848331 -0.0163791563 -0.0337712795 0.9994295877 0.0000000000
-0.0201120162 0.3459640825 -0.0230004062 -0.0722173065 0.9973889215 0.0000000000
-0.0162828383 0.3465615163 -0.0185517539 -0.0600796752 0.9981935847 0.0000000000
-0.0354287275 0.3435743474 -0.0263110312 -0.1229407252 0.9924140155 0.0000000000
-0.0336053094 0.3438588397 -0.0207243515 -0.1171703622 0.9931118297 0.0000000000
-0.0248529030 0.3452244026 -0.0200001523 -0.0884019451 0.9960848840 0.0000000000
-0.0326936004 0.3440010858 -0.0092406212 -0.1142268532 0.9934546925 0.0000000000
-0.0226648014 0.3455657933 -0.0092406212 -0.0813985969 0.9966816284 0.0000000000
-0.0326936004 0.3440010858 -0.0149307578 -0.1142268532 0.9934546925 0.0000000000
-0.0615597822 0.3473918652 -0.0287939999 0.0000000000 0.0000000000 1.0000000000
-0.0574132548 0.3484617145 -0.0287939999 0.0000000000 0.0000000000 1.0000000000
-0.0615597822 0.3486807412 -0.0287939999 0.0000000000 0.0000000000 1.0000000000
-0.0517588992 0.3472293389 -0.0287939999 0.0000000000 0.0000000000 1.0000000000
-0.0434658444 0.3487245995 -0.0287939999 0.0000000000 0.0000000000 1.0000000000
-0.0511934637 0.3484856014 -0.0287939999 0.0000000000 0.0000000000 1.0000000000
-0.0434658444 0.3510606871 -0.0287939999 0.0000000000 0.0000000000 1.0000000000
-0.0517588992 0.3508543025 -0.0287939999 0.0000000000 0.0000000000 1.0000000000
-0.0511934637 0.3497140613 -0.0287939999 0.0000000000 0.0000000000 1.0000000000
-0.0366806178 0.3479707416 -0.0287939999 0.0000000000 0.0000000000 1.0000000000
-0.0257488637 0.3497367183 -0.0287939999 0.0000000000 0.0000000000 1.0000000000
-0.0347958326 0.3491509060 -0.0287939999 0.0000000000 0.0000000000 1.0000000000
-0.0208484222 0.3493936523 -0.0287939999 0.0000000000 0.0000000000 1.0000000000
-0.0087857971 0.3512756503 -0.0287939999 0.0000000000 0.0000000000 1.0000000000
-0.0168903733 0.3504542340 -0.0287939999 0.0000000000 0.0000000000 1.0000000000
